0.62,0.62,0.62,0.62,0.62,0.62,0.621,0.621,0.621,0.621,0.621,0.621,0.621,0.621,0.621,0.621,0.621,0.621,0.621,0.62,0.619,0.619,0.619,0.618,0.611,0,0,0,0,0.558,0.555,0.555,0.555,0.555,0.555,0.555,0.554,0.554,0.554,0.555,0.555,0.556,0.556,0.557,0.557,0.558,0.559,0.559,0.56,0.56,0.56,0.56,0.56,0.56,0.559,0.559,0.559,0.558,0.558,0.557,0.557,0.557,0.557,0.557,0.557,0.557,0.557,0.558,0.558,0.558,0.558,0.558,0.558,0.558,0.558,0.558,0.558,0.559,0.559,0.56,0.56,0.56,0.56,0.561,0.561,0.561,0.561,0.561,0.561,0.561,0.561,0.561,0.561,0.561,0.561,0.561,0.561,0.561,0.561,0.561,0.561,0.562,0.562,0.562,0.562,0.563,0.563,0.564,0.564,0.564,0.564,0.564,0.564,0.564,0.564,0.564,0.564,0.564,0.564,0.564,0.564,0.564,0.564,0.565,0.565,0.565,0.565,0.566,0.566,0.566,0.567,0.567,0.567,0.568,0.568,0.568,0.568,0.568,0.568,0.568,0.567,0.567,0.566,0.565,0.565,0.564,0.564,0.563,0.563,0.564,0.564,0.564,0.564,0.564,0.565,0.565,0.566,0.566,0.566,0.567,0.567,0.568,0.569,0.569,0.569,0.57,0.571,0.571,0.572,0.572,0.573,0.573,0.573,0.573,0.573,0.573,0.573,0.573,0.573,0.573,0.573,0.573,0.573,0.573,0.573,0.573,0.573,0.573,0.573,0.574,0.574,0.574,0.574,0.574,0.573,0.574,0.574,0.574,0.574,0.574,0.575,0.575,0.575,0.575,0.576,0.576,0.576,0.576,0.577,0.577,0.577,0.577,0.583,0.588,0.597,0.603,0.618,0.627,0.634,0.638,0.641,0.64,0.639,0.639,0.638,0.637,0.637,0.635,0.634,0.634,0.634,0.634,0.634,0.635,0.635,0.636,0.637,0.638,0.639,0.64,0.64,0.641,0.643,0.643,0,0.645,0.645,0.646,0.646,0.646,0.647,0.647,0.648,0.648,0.648,0.648,0.648,0.648,0.648,0.648,0.648,0.648,0.648,0.649,0.649,0.649,0.65,0.65,0.65,0.65,0.65,0.651,0.651,0.651,0.652,0.652,0.653,0.653,0.653,0.653,0.653,0.653,0.653,0.653,0.653,0.653,0.653,0.653,0.653,0.653,0.653,0.653,0.653,0.653,0.653,0.654,0.654,0.655,0.655,0.655,0.656,0.656,0.656,0.656,0.657,0.657,0.658,0.658,0.658,0.658,0.659,0.659,0.66,0.66,0.66,0.66,0.66,0.66,0.66,0.66,0.66,0.659,0.659,0.659,0.659,0.659,0.658,0.658,0.658,0.658,0.658,0.657,0.657,0.657,0.657,0.656,0.656,0.656,0.656,0.656,0.656,0.657,0.657,0.657,0.657,0.657,0.657,0.658,0.658,0.658,0.658,0.658,0.658,0.658,0.658,0.658,0.658,0.657,0.657,0.657,0.656,0.655,0.655,0.653,0.651,0.65,0.646,0,0,0,0,0.6,0.597,0.594,0.592,0.59,0.588,0.587,0.586,0.585,0.585,0.584,0.583,0.583,0.582,0.581,0.579,0.577,0.575,0,0.569,0.565,0,0.554,0,0,0,0.521,0.518,0.516,0.514,0.514,0.514,0.514,0.514,0.514,0.514,0,0.614,0.614,0.614,0.615,0.615,0.616,0.616,0.617,0.618,0.62,0.621,0.625,0.63,0.634,0.638,0.644,0.649,0.653,0.658,0.662,0.663,0.664,0.664,0.665,0.664,0.664,0.664,0.664,0.663,0.663,0.662,0.661,0.66,0.659,0.658,0.658,0.657,0.656,0.656,0.656,0.657,0.658,0.659,0.66,0.661,0.662,0.663,0.664,0.665,0.666,0.666,0.667,0.668,0.668,0.668,0.669,0.669,0.67,0.67,0.671,0.671,0.671,0.672,0.673,0.673,0.674,0.674,0.674,0.674,0.675,0.675,0.675,0.675,0.675,0.675,0.675,0.674,0.674,0.674,0.674,0.674,0.674,0.674,0.674,0.674,0.674,0.674,0.674,0.674,0.674,0.674,0.674,0.674,0.674,0.674,0.674,0.674,0.674,0.674,0.674,0.674,0.674,0.674,0.674,0.674,0.674,0.674,0.674,0.674
0.619,0.619,0.619,0.619,0.619,0.619,0.619,0.619,0.619,0.619,0.619,0.619,0.619,0.619,0.619,0.619,0.619,0.619,0.619,0.618,0.618,0.616,0.616,0.616,0,0,0,0,0.565,0.559,0.555,0.555,0.555,0.555,0.555,0.555,0.555,0.555,0.555,0.555,0.556,0.556,0.557,0.557,0.558,0.559,0.56,0.56,0.561,0.561,0.561,0.561,0.561,0.56,0.56,0.56,0.559,0.559,0.558,0.558,0.558,0.558,0.558,0.558,0.558,0.558,0.558,0.558,0.558,0.558,0.558,0.558,0.559,0.559,0.559,0.559,0.559,0.559,0.56,0.56,0.56,0.561,0.561,0.561,0.561,0.561,0.562,0.562,0.562,0.562,0.562,0.562,0.561,0.561,0.561,0.561,0.561,0.561,0.561,0.561,0.561,0.562,0.562,0.562,0.563,0.563,0.563,0.564,0.564,0.564,0.564,0.564,0.564,0.564,0.564,0.564,0.564,0.564,0.564,0.564,0.564,0.565,0.565,0.565,0.565,0.566,0.566,0.566,0.567,0.567,0.567,0.568,0.568,0.568,0.569,0.569,0.569,0.569,0.569,0.568,0.568,0.567,0.566,0.566,0.565,0.565,0.564,0.564,0.564,0.564,0.564,0.564,0.564,0.564,0.565,0.565,0.565,0.566,0.566,0.566,0.567,0.568,0.568,0.569,0.569,0.57,0.571,0.572,0.572,0.573,0.573,0.573,0.574,0.574,0.574,0.574,0.574,0.574,0.574,0.574,0.573,0.573,0.573,0.573,0.573,0.573,0.574,0.574,0.574,0.574,0.574,0.574,0.574,0.574,0.574,0.574,0.574,0.574,0.574,0.575,0.575,0.575,0.576,0.576,0.576,0.576,0.576,0.577,0.577,0.577,0.577,0.578,0.586,0.591,0.6,0.608,0.616,0.624,0.631,0.635,0.638,0.638,0.637,0.637,0.635,0.635,0,0.633,0.632,0.632,0.632,0.632,0.632,0.632,0.633,0.634,0.635,0.635,0.636,0.636,0.637,0.638,0.639,0,0,0.641,0.641,0.643,0.643,0.644,0.644,0.645,0.645,0.645,0.645,0.645,0.645,0.645,0.645,0.645,0.645,0.645,0.646,0.646,0.646,0.646,0.646,0.646,0.646,0.647,0.647,0.648,0.648,0.648,0.649,0.649,0.65,0.65,0.65,0.65,0.65,0.65,0.65,0.65,0.65,0.65,0.65,0.65,0.65,0.65,0.65,0.65,0.65,0.65,0.651,0.651,0.651,0.651,0.652,0.653,0.653,0.653,0.654,0.654,0.655,0.655,0.655,0.655,0.656,0.656,0.656,0.656,0.656,0.656,0.657,0.657,0.657,0.657,0.657,0.657,0.657,0.656,0.656,0.656,0.656,0.656,0.656,0.655,0.655,0.655,0.655,0.655,0.654,0.654,0.654,0.654,0.654,0.654,0.654,0.654,0.654,0.654,0.654,0.655,0.655,0.655,0.655,0.655,0.655,0.655,0.655,0.655,0.655,0.655,0.655,0.655,0.655,0.655,0.655,0.655,0.654,0.653,0.652,0.651,0.649,0.646,0.643,0,0.629,0,0,0.603,0.598,0.595,0.593,0.591,0.589,0.588,0.586,0.585,0.585,0.584,0.584,0.583,0.582,0.582,0.58,0.579,0.577,0,0,0,0,0,0,0,0.522,0.518,0,0.514,0.514,0.514,0.514,0.514,0.514,0.514,0.514,0,0.615,0.614,0.615,0.615,0.615,0.616,0.616,0.617,0.619,0.62,0.622,0.626,0.63,0.634,0.639,0.644,0.649,0.653,0.657,0.66,0.662,0.662,0.663,0.663,0.662,0.662,0.662,0.662,0.662,0.661,0.66,0.66,0.659,0.658,0.657,0.657,0.656,0.656,0.656,0.656,0.656,0.657,0.658,0.659,0.66,0.661,0.662,0.662,0.663,0.664,0.664,0.665,0.665,0.666,0.666,0.666,0.667,0.668,0.668,0.668,0.668,0.669,0.669,0.669,0.669,0.67,0.67,0.671,0.671,0.671,0.671,0.672,0.672,0.671,0.671,0.671,0.671,0.671,0.671,0.671,0.671,0.671,0.671,0.671,0.671,0.671,0.671,0.671,0.671,0.671,0.671,0.671,0.671,0.671,0.671,0.671,0.671,0.671,0.671,0.671,0.671,0.671,0.671,0.671,0.671,0.671,0.671,0.671,0.671
0.616,0.616,0.616,0.616,0.617,0.617,0.617,0.617,0.617,0.617,0.617,0.617,0.617,0.617,0.617,0.617,0.617,0.617,0.616,0.616,0.616,0.615,0.615,0.614,0.61,0.6,0,0,0,0.561,0.557,0.556,0.556,0.555,0.555,0.555,0.555,0.555,0.555,0.556,0.556,0.557,0.557,0.558,0.559,0.56,0.56,0.561,0.561,0.561,0.561,0.561,0.561,0.561,0.561,0.561,0.56,0.559,0.559,0.559,0.558,0.558,0.558,0.558,0.558,0.558,0.559,0.559,0.559,0.559,0.559,0.559,0.559,0.559,0.559,0.56,0.56,0.56,0.561,0.561,0.561,0.561,0.561,0.562,0.562,0.562,0.562,0.562,0.562,0.562,0.562,0.562,0.562,0.562,0.562,0.562,0.562,0.562,0.562,0.562,0.562,0.562,0.563,0.563,0.563,0.564,0.564,0.564,0.564,0.564,0.564,0.564,0.565,0.565,0.565,0.564,0.564,0.565,0.565,0.565,0.565,0.565,0.565,0.566,0.566,0.566,0.566,0.567,0.567,0.568,0.568,0.568,0.568,0.569,0.569,0.569,0.569,0.569,0.569,0.569,0.568,0.567,0.567,0.566,0.565,0.565,0.564,0.564,0.564,0.564,0.565,0.565,0.565,0.565,0.565,0.565,0.565,0.566,0.566,0.566,0.567,0.568,0.568,0.569,0.569,0.57,0.571,0.572,0.573,0.574,0.574,0.574,0.574,0.574,0.574,0.574,0.574,0.574,0.574,0.574,0.574,0.574,0.574,0.574,0.574,0.574,0.574,0.574,0.575,0.575,0.575,0.575,0.575,0.575,0.575,0.574,0.574,0.575,0.575,0.575,0.575,0.576,0.576,0.576,0.576,0.577,0.577,0.577,0.577,0.577,0.578,0.579,0.585,0.592,0.6,0.607,0.615,0.623,0.627,0.632,0.635,0.635,0.634,0.634,0.633,0.632,0.631,0.631,0.63,0.63,0.63,0.63,0.63,0.63,0.631,0.631,0.632,0.632,0.633,0.633,0.633,0.634,0.635,0.637,0,0.637,0.638,0.64,0.641,0.641,0.642,0.642,0.642,0.643,0.643,0.643,0.643,0.643,0.643,0.643,0.643,0.643,0.643,0.643,0.643,0.643,0.643,0.644,0.644,0.644,0.645,0.645,0.645,0.645,0.646,0.646,0.646,0.646,0.646,0.647,0.647,0.647,0.647,0.647,0.647,0.647,0.647,0.647,0.647,0.647,0.647,0.647,0.648,0.648,0.648,0.648,0.648,0.649,0.65,0.65,0.65,0.651,0.651,0.651,0.652,0.652,0.653,0.653,0.653,0.653,0.653,0.653,0.654,0.654,0.654,0.654,0.654,0.654,0.654,0.654,0.653,0.653,0.653,0.653,0.653,0.653,0.652,0.652,0.652,0.651,0.651,0.651,0.651,0.651,0.651,0.651,0.651,0.651,0.651,0.651,0.651,0.651,0.651,0.651,0.651,0.651,0.652,0.652,0.652,0.652,0.652,0.652,0.652,0.653,0.653,0.653,0.653,0.652,0.652,0.652,0.651,0.65,0.65,0.648,0.645,0.643,0,0.633,0.627,0.619,0.611,0.604,0.6,0.597,0.594,0.592,0.59,0.588,0.587,0.586,0.586,0.585,0.584,0.583,0.583,0.583,0.581,0.581,0.579,0,0,0,0,0,0,0,0,0.516,0.514,0.514,0.514,0.514,0.514,0.514,0.514,0.514,0.515,0,0.615,0.615,0.615,0.615,0.616,0.616,0.617,0.618,0.619,0.621,0.623,0.626,0.63,0.634,0.639,0.643,0.648,0.652,0.655,0.659,0.66,0.66,0.66,0.66,0.66,0.66,0.66,0.659,0.659,0.658,0.658,0.658,0.657,0.656,0.656,0.656,0.656,0.655,0.655,0.656,0.656,0.656,0.657,0.658,0.658,0.659,0.66,0.661,0.662,0.662,0.662,0.663,0.663,0.664,0.664,0.664,0.664,0.665,0.665,0.666,0.666,0.666,0.666,0.666,0.667,0.667,0.668,0.668,0.668,0.668,0.669,0.669,0.669,0.669,0.668,0.668,0.668,0.668,0.668,0.668,0.668,0.668,0.668,0.668,0.669,0.669,0.669,0.669,0.669,0.669,0.669,0.669,0.669,0.669,0.669,0.669,0.669,0.669,0.669,0.669,0.669,0.669,0.669,0.669,0.669,0.669,0.669,0.669,0.669
0.614,0.614,0.615,0.615,0.615,0.615,0.615,0.615,0.615,0.615,0.616,0.616,0.616,0.616,0.616,0.616,0.615,0.615,0.615,0.614,0.614,0.613,0.612,0.612,0.609,0.6,0,0,0,0.563,0.558,0.557,0.556,0.556,0.556,0.556,0.555,0.555,0.556,0.556,0.557,0.557,0.558,0.558,0.559,0.56,0.561,0.561,0.561,0.562,0.562,0.562,0.562,0.562,0.561,0.561,0.561,0.56,0.559,0.559,0.559,0.559,0.559,0.559,0.559,0.559,0.559,0.559,0.56,0.56,0.56,0.56,0.56,0.56,0.56,0.56,0.561,0.561,0.561,0.561,0.561,0.562,0.562,0.562,0.563,0.563,0.563,0.563,0.563,0.563,0.563,0.563,0.563,0.563,0.563,0.563,0.562,0.562,0.562,0.562,0.562,0.563,0.563,0.563,0.564,0.564,0.564,0.565,0.565,0.565,0.565,0.565,0.565,0.565,0.565,0.565,0.565,0.565,0.565,0.565,0.566,0.566,0.566,0.566,0.566,0.567,0.567,0.567,0.568,0.568,0.568,0.569,0.569,0.569,0.569,0.57,0.57,0.569,0.569,0.569,0.569,0.568,0.567,0.567,0.566,0.566,0.565,0.565,0.565,0.565,0.565,0.565,0.565,0.566,0.566,0.566,0.566,0.566,0.566,0.567,0.567,0.568,0.569,0.569,0.57,0.571,0.572,0.572,0.573,0.574,0.574,0.574,0.575,0.575,0.575,0.575,0.575,0.575,0.575,0.575,0.574,0.574,0.574,0.575,0.575,0.575,0.575,0.575,0.576,0.576,0.576,0.576,0.576,0.576,0.575,0.575,0.575,0.575,0.575,0.575,0.576,0.576,0.576,0.576,0.577,0.577,0.577,0.578,0.578,0.578,0.578,0.58,0.586,0.592,0.599,0.606,0.613,0.62,0.625,0.629,0.632,0.632,0.631,0.631,0.631,0.63,0.629,0.628,0.628,0.628,0.628,0.628,0.628,0.628,0.628,0.629,0.63,0.63,0.631,0.63,0.63,0.631,0.632,0.633,0,0.634,0.635,0.637,0.638,0.639,0.64,0.64,0.64,0.64,0.64,0.64,0.64,0.64,0.64,0.64,0.64,0.64,0.64,0.641,0.641,0.641,0.641,0.641,0.641,0.641,0.641,0.641,0.642,0.642,0.643,0.643,0.643,0.643,0.644,0.644,0.644,0.644,0.645,0.645,0.645,0.645,0.645,0.645,0.645,0.645,0.645,0.645,0.645,0.645,0.645,0.646,0.646,0.646,0.647,0.647,0.648,0.648,0.648,0.649,0.649,0.65,0.65,0.65,0.65,0.65,0.651,0.651,0.651,0.651,0.651,0.651,0.651,0.65,0.65,0.65,0.65,0.65,0.65,0.65,0.65,0.65,0.649,0.649,0.649,0.649,0.649,0.648,0.648,0.648,0.648,0.648,0.648,0.648,0.648,0.648,0.648,0.649,0.649,0.649,0.649,0.649,0.649,0.649,0.65,0.65,0.65,0.65,0.65,0.65,0.65,0.65,0.65,0.65,0.65,0.65,0.649,0.648,0.647,0.646,0.643,0.64,0.637,0.632,0.627,0.62,0.614,0.607,0,0.599,0.596,0.593,0.591,0.589,0.588,0.587,0.586,0.585,0.584,0.584,0.583,0.583,0.583,0.582,0.581,0.58,0,0,0,0,0,0,0,0,0.514,0.514,0.514,0.514,0.514,0.514,0.514,0.515,0.515,0,0.615,0.615,0.616,0.616,0.616,0.617,0.618,0.619,0.62,0.622,0.624,0.627,0.631,0.635,0.639,0.643,0.647,0.65,0.653,0.656,0.657,0.658,0.658,0.658,0.658,0.658,0.657,0.657,0.657,0.656,0.656,0.656,0.655,0.655,0.655,0.655,0.655,0.655,0.654,0.655,0.655,0.655,0.656,0.656,0.657,0.658,0.658,0.659,0.66,0.66,0.66,0.661,0.661,0.662,0.662,0.662,0.662,0.662,0.663,0.663,0.663,0.664,0.664,0.664,0.664,0.664,0.665,0.665,0.666,0.666,0.666,0.666,0.666,0.666,0.666,0.666,0.666,0.665,0.665,0.665,0.665,0.665,0.665,0.666,0.666,0.666,0.666,0.666,0.666,0.666,0.666,0.667,0.667,0.667,0.667,0.667,0.667,0.667,0.667,0.666,0.666,0.666,0.666,0.666,0.666,0.667,0.667,0.667,0.667
0.612,0.612,0.612,0.612,0.613,0.613,0.614,0.614,0.614,0.614,0.614,0.614,0.614,0.614,0.614,0.614,0.614,0.614,0.613,0.613,0.612,0.611,0.611,0.61,0.609,0.601,0,0,0,0.565,0.56,0.557,0.557,0.557,0.556,0.556,0.556,0.556,0.556,0.557,0.557,0.558,0.558,0.559,0.56,0.561,0.561,0.562,0.562,0.562,0.562,0.562,0.562,0.562,0.562,0.561,0.561,0.561,0.56,0.56,0.56,0.559,0.559,0.559,0.559,0.559,0.56,0.56,0.56,0.56,0.56,0.56,0.56,0.561,0.561,0.561,0.561,0.561,0.561,0.561,0.562,0.562,0.562,0.563,0.563,0.563,0.563,0.564,0.564,0.564,0.564,0.564,0.564,0.563,0.563,0.563,0.563,0.563,0.563,0.563,0.563,0.563,0.564,0.564,0.564,0.564,0.565,0.565,0.565,0.565,0.565,0.565,0.565,0.565,0.565,0.566,0.566,0.566,0.566,0.566,0.566,0.566,0.567,0.567,0.567,0.567,0.568,0.568,0.568,0.569,0.569,0.569,0.569,0.569,0.569,0.57,0.57,0.57,0.57,0.569,0.569,0.569,0.568,0.568,0.567,0.567,0.566,0.566,0.566,0.566,0.566,0.566,0.566,0.566,0.566,0.567,0.567,0.567,0.567,0.567,0.568,0.568,0.569,0.569,0.57,0.571,0.572,0.573,0.574,0.574,0.575,0.575,0.575,0.575,0.575,0.575,0.575,0.575,0.575,0.575,0.575,0.575,0.575,0.575,0.575,0.575,0.575,0.576,0.576,0.576,0.576,0.577,0.576,0.576,0.576,0.576,0.576,0.576,0.576,0.576,0.576,0.576,0.576,0.577,0.577,0.577,0.577,0.578,0.578,0.578,0.579,0.58,0.586,0.592,0.598,0.605,0.611,0.618,0.623,0.625,0.63,0.63,0.629,0.629,0.628,0.628,0.627,0.627,0.626,0.626,0.626,0.626,0.625,0.626,0.626,0.627,0.628,0.627,0.628,0.627,0.627,0.628,0.629,0.63,0.63,0.631,0.632,0.634,0.635,0.637,0.637,0.637,0.637,0.637,0.637,0.638,0.638,0.638,0.638,0.638,0.638,0.638,0.638,0.638,0.638,0.638,0.638,0.638,0.638,0.639,0.639,0.639,0.64,0.64,0.64,0.64,0.64,0.641,0.641,0.641,0.641,0.641,0.641,0.641,0.641,0.642,0.642,0.642,0.642,0.642,0.642,0.643,0.643,0.643,0.643,0.643,0.643,0.644,0.645,0.645,0.645,0.646,0.646,0.646,0.646,0.647,0.647,0.647,0.647,0.648,0.648,0.648,0.648,0.648,0.648,0.647,0.647,0.647,0.647,0.647,0.646,0.646,0.646,0.646,0.646,0.646,0.646,0.646,0.646,0.646,0.646,0.646,0.645,0.645,0.646,0.646,0.646,0.646,0.646,0.646,0.646,0.646,0.646,0.646,0.646,0.646,0.646,0.646,0.647,0.647,0.647,0.647,0.647,0.647,0.648,0.648,0.648,0.648,0.648,0.647,0.646,0.645,0.645,0.643,0.641,0.638,0.635,0.631,0.627,0.621,0.616,0.61,0,0.601,0.598,0.595,0.592,0.591,0.589,0.588,0.587,0.586,0.586,0.585,0.584,0.584,0.583,0.583,0.582,0.581,0.581,0,0,0,0,0,0,0,0.514,0.515,0.515,0.515,0.515,0.515,0.515,0.516,0.516,0,0.616,0.616,0.616,0.617,0.617,0.618,0.619,0.62,0.621,0.623,0.624,0.628,0.631,0.635,0.638,0.642,0.645,0.648,0.651,0.654,0.655,0.655,0.655,0.656,0.656,0.655,0.655,0.655,0.655,0.655,0.654,0.654,0.654,0.653,0.653,0.653,0.653,0.653,0.653,0.653,0.654,0.654,0.655,0.655,0.655,0.656,0.656,0.657,0.658,0.658,0.658,0.659,0.659,0.659,0.66,0.66,0.66,0.66,0.66,0.66,0.661,0.661,0.661,0.662,0.662,0.662,0.662,0.662,0.663,0.663,0.663,0.663,0.663,0.663,0.662,0.662,0.662,0.662,0.662,0.662,0.662,0.662,0.662,0.663,0.663,0.664,0.664,0.664,0.664,0.664,0.664,0.664,0.664,0.665,0.665,0.665,0.665,0.664,0.664,0.664,0.664,0.664,0.664,0.664,0.664,0.664,0.664,0.664,0.664
0.61,0.611,0.611,0.611,0.611,0.611,0.611,0.611,0.612,0.612,0.612,0.612,0.612,0.612,0.612,0.612,0.612,0.611,0.611,0.611,0.61,0.609,0.609,0.609,0.607,0.6,0,0,0,0.567,0.561,0.558,0.558,0.558,0.557,0.557,0.557,0.557,0.557,0.557,0.558,0.558,0.559,0.559,0.56,0.561,0.561,0.562,0.562,0.563,0.563,0.563,0.563,0.562,0.562,0.562,0.561,0.561,0.561,0.561,0.56,0.56,0.56,0.56,0.56,0.56,0.56,0.56,0.56,0.561,0.561,0.561,0.561,0.561,0.561,0.561,0.561,0.561,0.562,0.562,0.562,0.563,0.563,0.563,0.564,0.564,0.564,0.564,0.564,0.565,0.565,0.564,0.564,0.564,0.564,0.564,0.564,0.564,0.564,0.564,0.564,0.564,0.564,0.565,0.565,0.565,0.565,0.566,0.566,0.566,0.565,0.566,0.566,0.566,0.566,0.566,0.566,0.566,0.567,0.567,0.567,0.567,0.567,0.568,0.568,0.568,0.568,0.569,0.569,0.569,0.569,0.569,0.569,0.57,0.57,0.57,0.57,0.57,0.57,0.57,0.569,0.569,0.569,0.569,0.568,0.568,0.567,0.567,0.567,0.567,0.567,0.567,0.567,0.567,0.568,0.567,0.567,0.568,0.568,0.568,0.568,0.569,0.569,0.57,0.57,0.571,0.572,0.573,0.574,0.575,0.575,0.575,0.575,0.575,0.575,0.575,0.575,0.575,0.575,0.575,0.575,0.575,0.576,0.576,0.576,0.576,0.576,0.576,0.577,0.577,0.577,0.577,0.577,0.577,0.576,0.576,0.576,0.576,0.576,0.576,0.576,0.577,0.577,0.577,0.577,0.577,0.578,0.578,0.579,0.579,0.579,0.581,0.586,0.592,0.598,0.604,0.61,0.616,0.62,0.623,0.627,0.627,0.626,0.626,0.626,0.625,0.625,0.624,0.624,0.624,0.624,0.624,0.624,0.624,0.624,0.625,0.625,0.625,0.625,0.624,0.624,0.625,0.626,0.627,0.628,0.628,0.63,0.631,0.633,0.634,0.635,0.635,0.635,0.635,0.635,0.635,0.635,0.635,0.635,0.635,0.635,0.635,0.636,0.636,0.636,0.636,0.636,0.636,0.637,0.637,0.637,0.637,0.637,0.638,0.638,0.638,0.638,0.638,0.638,0.638,0.638,0.639,0.639,0.639,0.639,0.639,0.64,0.64,0.64,0.64,0.64,0.64,0.64,0.64,0.641,0.641,0.641,0.641,0.642,0.642,0.643,0.643,0.643,0.644,0.644,0.644,0.645,0.645,0.644,0.644,0.645,0.645,0.645,0.645,0.644,0.644,0.644,0.644,0.643,0.643,0.643,0.643,0.643,0.643,0.643,0.643,0.643,0.643,0.643,0.643,0.643,0.643,0.643,0.643,0.643,0.643,0.643,0.643,0.643,0.643,0.644,0.644,0.644,0.644,0.644,0.644,0.644,0.644,0.644,0.645,0.645,0.645,0.645,0.645,0.645,0.645,0.645,0.645,0.645,0.645,0.644,0.643,0.642,0.64,0.638,0.636,0.633,0.63,0.627,0.622,0.617,0.613,0,0.605,0.601,0.598,0.595,0.592,0.59,0.589,0.588,0.587,0.587,0.585,0.585,0.585,0.585,0.584,0.584,0,0,0,0,0,0,0,0,0,0.516,0.516,0.516,0.516,0.516,0.516,0.516,0.517,0.517,0,0.616,0.616,0.617,0.618,0.618,0.619,0.62,0.621,0.623,0.624,0.626,0.629,0.632,0.635,0.638,0.641,0.644,0.647,0.649,0.651,0.651,0.652,0.653,0.653,0.653,0.652,0.652,0.652,0.652,0.652,0.652,0.651,0.651,0.651,0.651,0.651,0.651,0.651,0.651,0.652,0.652,0.653,0.653,0.653,0.654,0.654,0.655,0.655,0.656,0.656,0.656,0.656,0.657,0.657,0.657,0.658,0.658,0.658,0.658,0.658,0.658,0.658,0.659,0.659,0.66,0.66,0.66,0.66,0.66,0.66,0.66,0.66,0.66,0.66,0.66,0.66,0.66,0.659,0.659,0.659,0.659,0.659,0.66,0.66,0.66,0.66,0.66,0.661,0.661,0.661,0.662,0.662,0.662,0.662,0.662,0.662,0.662,0.662,0.662,0.662,0.662,0.662,0.662,0.662,0.662,0.662,0.662,0.662,0.662
0.608,0.608,0.609,0.609,0.609,0.609,0.609,0.61,0.61,0.61,0.61,0.61,0.61,0.61,0.61,0.61,0.61,0.61,0.609,0.609,0.608,0.607,0.607,0.606,0.606,0.6,0.591,0,0.576,0,0.562,0.559,0.558,0.558,0.558,0.558,0.558,0.557,0.558,0.558,0.558,0.559,0.559,0.56,0.56,0.561,0.561,0.562,0.562,0.562,0.562,0.563,0.563,0.562,0.562,0.562,0.562,0.561,0.561,0.561,0.561,0.561,0.561,0.561,0.561,0.561,0.561,0.561,0.561,0.561,0.561,0.561,0.561,0.561,0.561,0.561,0.562,0.562,0.562,0.562,0.563,0.563,0.563,0.564,0.564,0.564,0.565,0.565,0.565,0.565,0.565,0.565,0.565,0.565,0.565,0.565,0.564,0.564,0.564,0.564,0.565,0.565,0.565,0.565,0.566,0.566,0.566,0.566,0.566,0.566,0.566,0.566,0.566,0.566,0.567,0.567,0.567,0.567,0.567,0.568,0.568,0.568,0.568,0.568,0.569,0.569,0.569,0.569,0.569,0.569,0.569,0.57,0.57,0.57,0.57,0.57,0.57,0.571,0.571,0.57,0.57,0.57,0.57,0.569,0.569,0.569,0.569,0.569,0.569,0.569,0.569,0.569,0.569,0.568,0.569,0.569,0.568,0.568,0.568,0.569,0.569,0.569,0.57,0.57,0.571,0.572,0.573,0.574,0.575,0.575,0.576,0.576,0.576,0.576,0.576,0.576,0.576,0.576,0.576,0.576,0.576,0.576,0.576,0.576,0.576,0.577,0.577,0.577,0.577,0.578,0.578,0.578,0.578,0.577,0.577,0.577,0.577,0.576,0.577,0.576,0.577,0.577,0.577,0.577,0.578,0.578,0.578,0.578,0.579,0.579,0.58,0.582,0.587,0.592,0.597,0.603,0.609,0.614,0.618,0.621,0.624,0.624,0.624,0.624,0.624,0.623,0.623,0.623,0.622,0.622,0.622,0.622,0.621,0.621,0.621,0.622,0.623,0.622,0.622,0.621,0.621,0.622,0.623,0.624,0.624,0.625,0.627,0.629,0.63,0.632,0.632,0.632,0.632,0.632,0.632,0.632,0.632,0.632,0.633,0.633,0.633,0.634,0.634,0.634,0.634,0.634,0.634,0.634,0.634,0.635,0.635,0.635,0.635,0.635,0.635,0.635,0.636,0.636,0.636,0.636,0.636,0.637,0.637,0.637,0.637,0.637,0.637,0.637,0.637,0.637,0.637,0.638,0.638,0.638,0.638,0.638,0.639,0.64,0.64,0.64,0.64,0.641,0.641,0.641,0.641,0.641,0.642,0.641,0.641,0.641,0.641,0.641,0.641,0.641,0.641,0.641,0.641,0.641,0.64,0.64,0.64,0.64,0.64,0.64,0.64,0.64,0.64,0.64,0.64,0.641,0.641,0.641,0.641,0.641,0.641,0.641,0.641,0.641,0.641,0.641,0.641,0.642,0.642,0.642,0.642,0.642,0.642,0.642,0.642,0.642,0.642,0.642,0.642,0.643,0.643,0.643,0.643,0.643,0.643,0.642,0.641,0.641,0.64,0.638,0.637,0.634,0.632,0.63,0.627,0.623,0.619,0.616,0.612,0.608,0.604,0.6,0.597,0.595,0.592,0.591,0.589,0.588,0.588,0.586,0.586,0.586,0.586,0.584,0.583,0,0,0,0,0,0,0,0,0,0.518,0.518,0.518,0.518,0.517,0.517,0.518,0.518,0.518,0.616,0.616,0.617,0.617,0.618,0.619,0.62,0.62,0.621,0.623,0.625,0.627,0.63,0.632,0.634,0.637,0.64,0.643,0.645,0.646,0.648,0.648,0.649,0.65,0.65,0.65,0.65,0.65,0.65,0.65,0.65,0.65,0.649,0.649,0.649,0.649,0.649,0.65,0.65,0.65,0.65,0.651,0.651,0.651,0.652,0.652,0.652,0.653,0.653,0.653,0.654,0.654,0.655,0.655,0.655,0.655,0.655,0.656,0.656,0.656,0.656,0.656,0.656,0.656,0.657,0.657,0.657,0.658,0.658,0.658,0.658,0.658,0.658,0.658,0.658,0.658,0.657,0.657,0.657,0.657,0.657,0.656,0.657,0.657,0.657,0.658,0.658,0.658,0.658,0.658,0.658,0.659,0.659,0.66,0.66,0.66,0.66,0.66,0.66,0.66,0.66,0.66,0.66,0.66,0.66,0.66,0.66,0.66,0.66,0.66
0.605,0.606,0.606,0.606,0.606,0.606,0.607,0.607,0.607,0.607,0.607,0.607,0.607,0.607,0.607,0.607,0.607,0.607,0.606,0.606,0.606,0.605,0.605,0.604,0.604,0.599,0.591,0,0,0,0.564,0.56,0.559,0.559,0.558,0.558,0.558,0.558,0.558,0.558,0.558,0.559,0.559,0.56,0.56,0.561,0.561,0.561,0.562,0.562,0.562,0.562,0.562,0.562,0.562,0.562,0.562,0.562,0.561,0.561,0.561,0.561,0.561,0.561,0.561,0.561,0.561,0.561,0.561,0.561,0.561,0.561,0.561,0.561,0.562,0.562,0.562,0.562,0.563,0.563,0.563,0.564,0.564,0.564,0.565,0.565,0.565,0.565,0.565,0.565,0.566,0.566,0.566,0.565,0.565,0.565,0.565,0.565,0.565,0.565,0.565,0.565,0.566,0.566,0.566,0.566,0.566,0.567,0.567,0.567,0.567,0.567,0.567,0.567,0.567,0.567,0.568,0.568,0.568,0.568,0.569,0.569,0.569,0.569,0.569,0.569,0.569,0.57,0.57,0.57,0.57,0.57,0.57,0.57,0.57,0.57,0.571,0.571,0.571,0.571,0.571,0.571,0.571,0.57,0.57,0.57,0.57,0.57,0.57,0.57,0.57,0.57,0.569,0.569,0.569,0.569,0.569,0.569,0.569,0.569,0.569,0.57,0.57,0.571,0.572,0.573,0.574,0.574,0.575,0.576,0.576,0.576,0.576,0.576,0.576,0.576,0.576,0.576,0.576,0.576,0.576,0.576,0.576,0.576,0.577,0.577,0.577,0.577,0.578,0.578,0.578,0.578,0.578,0.578,0.578,0.577,0.577,0.577,0.577,0.577,0.577,0.577,0.577,0.578,0.578,0.578,0.578,0.578,0.579,0.579,0.58,0.582,0.587,0.591,0.597,0.602,0.607,0.612,0.616,0.619,0.621,0.621,0.621,0.621,0.621,0.621,0.621,0.62,0.62,0.62,0.62,0.62,0.619,0.619,0.62,0.62,0.62,0.62,0.619,0.619,0.619,0.62,0.621,0.621,0.622,0.623,0.625,0.626,0.627,0.629,0.629,0.63,0.63,0.63,0.63,0.63,0.63,0.63,0.631,0.631,0.631,0.631,0.631,0.631,0.631,0.632,0.632,0.632,0.632,0.632,0.633,0.633,0.633,0.633,0.633,0.634,0.634,0.634,0.634,0.634,0.634,0.634,0.634,0.634,0.634,0.634,0.635,0.635,0.635,0.635,0.635,0.635,0.635,0.636,0.636,0.637,0.637,0.637,0.638,0.638,0.638,0.638,0.639,0.639,0.639,0.64,0.64,0.639,0.639,0.639,0.639,0.639,0.638,0.638,0.638,0.638,0.638,0.638,0.638,0.638,0.638,0.638,0.638,0.638,0.638,0.638,0.638,0.638,0.638,0.638,0.638,0.638,0.639,0.639,0.639,0.639,0.639,0.64,0.64,0.64,0.64,0.64,0.64,0.64,0.64,0.64,0.64,0.64,0.64,0.64,0.64,0.64,0.64,0.64,0.64,0.64,0.641,0.641,0.64,0.64,0.64,0.638,0.637,0.636,0.635,0.633,0.631,0.628,0.627,0.624,0.621,0.617,0.614,0.61,0.606,0.603,0.599,0.597,0.594,0.592,0.591,0.59,0.588,0.587,0.587,0.586,0.585,0.581,0,0,0,0,0,0.524,0.523,0.522,0,0,0.52,0.52,0.52,0.519,0.519,0.519,0.519,0.52,0,0.616,0.616,0.616,0.617,0.618,0.619,0.62,0.621,0.622,0.624,0.625,0.627,0.63,0.632,0.634,0.636,0.638,0.64,0.642,0.644,0.645,0.645,0.646,0.646,0.646,0.647,0.646,0.646,0.646,0.647,0.647,0.647,0.647,0.647,0.647,0.647,0.648,0.648,0.648,0.648,0.649,0.65,0.65,0.65,0.65,0.65,0.651,0.651,0.651,0.651,0.651,0.652,0.652,0.653,0.653,0.653,0.653,0.654,0.654,0.654,0.654,0.654,0.655,0.655,0.655,0.655,0.655,0.655,0.655,0.655,0.655,0.655,0.656,0.656,0.655,0.655,0.655,0.655,0.655,0.655,0.655,0.655,0.655,0.655,0.655,0.655,0.656,0.656,0.656,0.656,0.656,0.656,0.656,0.657,0.657,0.657,0.657,0.657,0.657,0.657,0.657,0.657,0.657,0.657,0.657,0.657,0.657,0.657,0.657,0.657
0.603,0.603,0.604,0.604,0.604,0.604,0.604,0.604,0.605,0.605,0.605,0.605,0.605,0.605,0.605,0.605,0.605,0.604,0.604,0.604,0.603,0.603,0.602,0.602,0.601,0.598,0.591,0,0,0,0.566,0.561,0.56,0.56,0.559,0.559,0.559,0.559,0.559,0.558,0.559,0.559,0.559,0.56,0.56,0.561,0.561,0.561,0.561,0.562,0.562,0.562,0.562,0.562,0.562,0.562,0.562,0.562,0.562,0.562,0.562,0.561,0.561,0.561,0.561,0.561,0.561,0.561,0.561,0.561,0.561,0.561,0.561,0.562,0.562,0.562,0.562,0.563,0.563,0.563,0.564,0.564,0.564,0.565,0.565,0.565,0.565,0.566,0.566,0.566,0.566,0.566,0.566,0.566,0.566,0.566,0.566,0.566,0.566,0.566,0.566,0.566,0.566,0.566,0.567,0.567,0.567,0.567,0.567,0.567,0.567,0.567,0.567,0.568,0.568,0.568,0.569,0.569,0.569,0.569,0.569,0.569,0.57,0.57,0.57,0.57,0.57,0.57,0.57,0.57,0.57,0.57,0.57,0.571,0.571,0.571,0.571,0.571,0.571,0.571,0.571,0.572,0.572,0.572,0.572,0.572,0.572,0.572,0.572,0.572,0.572,0.571,0.571,0.571,0.57,0.57,0.57,0.57,0.57,0.57,0.57,0.571,0.571,0.572,0.573,0.573,0.574,0.575,0.575,0.576,0.576,0.576,0.576,0.576,0.576,0.576,0.576,0.576,0.576,0.576,0.576,0.576,0.577,0.577,0.577,0.577,0.578,0.578,0.578,0.578,0.579,0.579,0.579,0.578,0.578,0.578,0.577,0.577,0.577,0.577,0.578,0.577,0.578,0.578,0.578,0.578,0.578,0.579,0.579,0.579,0.58,0.583,0.587,0.591,0.596,0.601,0.606,0.611,0.615,0.616,0.619,0.619,0.619,0.619,0.619,0.619,0.619,0.618,0.617,0.617,0.617,0.617,0.617,0.617,0.617,0.617,0.617,0.617,0.617,0.617,0.617,0.618,0.619,0.619,0.62,0.621,0.623,0.624,0.624,0.626,0.626,0.627,0.627,0.627,0.628,0.628,0.628,0.628,0.628,0.628,0.628,0.629,0.629,0.629,0.63,0.63,0.63,0.63,0.63,0.631,0.631,0.631,0.631,0.631,0.631,0.631,0.631,0.631,0.631,0.631,0.631,0.632,0.632,0.632,0.632,0.632,0.632,0.632,0.632,0.632,0.632,0.633,0.633,0.634,0.634,0.634,0.634,0.635,0.635,0.635,0.636,0.637,0.637,0.637,0.637,0.637,0.637,0.637,0.637,0.637,0.637,0.637,0.637,0.637,0.636,0.636,0.636,0.636,0.636,0.636,0.636,0.636,0.636,0.636,0.636,0.636,0.636,0.636,0.636,0.636,0.636,0.637,0.637,0.637,0.637,0.637,0.637,0.637,0.638,0.638,0.638,0.638,0.638,0.638,0.638,0.638,0.638,0.638,0.638,0.638,0.638,0.638,0.638,0.638,0.638,0.638,0.638,0.638,0.638,0.638,0.637,0.637,0.635,0.635,0.634,0.632,0.631,0.628,0.627,0.624,0.621,0.619,0.615,0.611,0.607,0,0.6,0.598,0.596,0.594,0.592,0.591,0.589,0.587,0.587,0.586,0.582,0,0,0,0,0,0.527,0.527,0.525,0.524,0.522,0.522,0.522,0.522,0.521,0.521,0.52,0.52,0.52,0.521,0,0.616,0.616,0.616,0.617,0.617,0.619,0.619,0.62,0.621,0.623,0.625,0.627,0.629,0.631,0.633,0.635,0.637,0.638,0.64,0.641,0.641,0.642,0.643,0.643,0.643,0.643,0.643,0.643,0.644,0.644,0.644,0.644,0.644,0.645,0.645,0.645,0.645,0.646,0.646,0.646,0.647,0.648,0.648,0.648,0.648,0.649,0.649,0.649,0.65,0.65,0.65,0.65,0.65,0.651,0.651,0.651,0.651,0.651,0.651,0.652,0.652,0.652,0.652,0.653,0.653,0.653,0.653,0.653,0.653,0.653,0.653,0.653,0.653,0.653,0.653,0.653,0.653,0.652,0.652,0.652,0.652,0.652,0.652,0.652,0.653,0.653,0.653,0.653,0.653,0.653,0.654,0.654,0.654,0.655,0.655,0.655,0.655,0.655,0.655,0.655,0.655,0.655,0.655,0.655,0.655,0.655,0.655,0.655,0.655,0.655
0.601,0.601,0.601,0.601,0.601,0.601,0.601,0.602,0.602,0.603,0.603,0.603,0.603,0.603,0.603,0.603,0.602,0.601,0.601,0.601,0.601,0.6,0.6,0.599,0.599,0.596,0.59,0,0,0.573,0.568,0.563,0.561,0.561,0.56,0.56,0.559,0.559,0.559,0.559,0.559,0.56,0.559,0.56,0.56,0.561,0.561,0.561,0.561,0.561,0.562,0.562,0.562,0.562,0.562,0.562,0.562,0.562,0.562,0.562,0.562,0.562,0.562,0.562,0.562,0.562,0.561,0.561,0.561,0.562,0.562,0.562,0.562,0.562,0.562,0.563,0.563,0.563,0.564,0.564,0.564,0.564,0.565,0.565,0.565,0.566,0.566,0.566,0.566,0.566,0.566,0.567,0.567,0.567,0.567,0.567,0.566,0.566,0.567,0.567,0.567,0.567,0.567,0.567,0.567,0.567,0.567,0.567,0.567,0.567,0.568,0.568,0.568,0.569,0.569,0.569,0.569,0.569,0.57,0.57,0.57,0.57,0.57,0.57,0.57,0.571,0.571,0.571,0.571,0.571,0.571,0.571,0.571,0.571,0.571,0.571,0.571,0.572,0.572,0.572,0.572,0.573,0.573,0.573,0.573,0.573,0.573,0.573,0.573,0.573,0.573,0.573,0.572,0.572,0.571,0.571,0.571,0.571,0.571,0.571,0.571,0.572,0.572,0.573,0.574,0.574,0.575,0.576,0.576,0.576,0.577,0.577,0.577,0.577,0.576,0.576,0.576,0.576,0.576,0.576,0.577,0.577,0.577,0.577,0.577,0.578,0.578,0.578,0.579,0.579,0.579,0.579,0.579,0.579,0.578,0.578,0.578,0.577,0.578,0.578,0.578,0.578,0.578,0.578,0.578,0.579,0.579,0.579,0.579,0.58,0.581,0.583,0.587,0.591,0.596,0.6,0.605,0.609,0.613,0.614,0.616,0.616,0.617,0.617,0.617,0.617,0.616,0.616,0.616,0.616,0.615,0.615,0.615,0.615,0.615,0.615,0.615,0.615,0.615,0.615,0.615,0.616,0.617,0.617,0.618,0.619,0.62,0.621,0.623,0.624,0.624,0.624,0.625,0.625,0.625,0.625,0.625,0.625,0.626,0.626,0.627,0.627,0.627,0.627,0.627,0.628,0.628,0.628,0.628,0.628,0.628,0.628,0.628,0.629,0.629,0.629,0.629,0.629,0.629,0.629,0.629,0.63,0.63,0.63,0.63,0.63,0.63,0.63,0.63,0.63,0.63,0.631,0.631,0.631,0.631,0.631,0.632,0.632,0.632,0.633,0.634,0.634,0.634,0.634,0.635,0.635,0.635,0.635,0.635,0.634,0.634,0.634,0.634,0.634,0.634,0.634,0.634,0.634,0.634,0.634,0.634,0.634,0.634,0.634,0.634,0.634,0.634,0.634,0.634,0.634,0.634,0.634,0.634,0.635,0.635,0.635,0.635,0.635,0.635,0.635,0.636,0.636,0.636,0.636,0.636,0.636,0.636,0.636,0.636,0.636,0.636,0.636,0.636,0.636,0.636,0.636,0.637,0.636,0.636,0.635,0.635,0.635,0.634,0.633,0.632,0.631,0.63,0.628,0.627,0.624,0.622,0.619,0.616,0.613,0.609,0.606,0,0.6,0.597,0.595,0.593,0.591,0.589,0.587,0.586,0.583,0,0,0,0,0,0,0.528,0.528,0.527,0.526,0.525,0.524,0.524,0.524,0.523,0.522,0.522,0.522,0.522,0.522,0,0.615,0.615,0.616,0.616,0.616,0.617,0.619,0.62,0.621,0.623,0.624,0.626,0.628,0.63,0.632,0.634,0.635,0.637,0.638,0.638,0.639,0.639,0.64,0.64,0.64,0.64,0.64,0.641,0.641,0.641,0.641,0.641,0.642,0.642,0.642,0.643,0.643,0.644,0.644,0.645,0.645,0.646,0.646,0.646,0.646,0.646,0.647,0.647,0.648,0.648,0.648,0.648,0.648,0.649,0.649,0.649,0.649,0.649,0.65,0.65,0.65,0.65,0.65,0.65,0.65,0.65,0.65,0.651,0.651,0.651,0.651,0.651,0.651,0.651,0.65,0.65,0.65,0.65,0.65,0.65,0.65,0.65,0.65,0.65,0.65,0.65,0.651,0.651,0.651,0.651,0.651,0.651,0.652,0.652,0.652,0.653,0.653,0.653,0.653,0.653,0.653,0.653,0.652,0.652,0.652,0.652,0.652,0.652,0.652,0.651
0.599,0.599,0.599,0.599,0.599,0.599,0.599,0.6,0.6,0.6,0.6,0.6,0.601,0.6,0.6,0.6,0.6,0.599,0.599,0.599,0.598,0.598,0.598,0.598,0.597,0.595,0.589,0,0,0.574,0.569,0.565,0.563,0.562,0.561,0.56,0.56,0.56,0.56,0.56,0.56,0.56,0.56,0.56,0.56,0.561,0.561,0.561,0.561,0.561,0.561,0.561,0.562,0.562,0.562,0.562,0.562,0.562,0.562,0.562,0.562,0.562,0.562,0.562,0.562,0.562,0.562,0.562,0.562,0.562,0.562,0.562,0.562,0.563,0.563,0.563,0.563,0.564,0.564,0.564,0.565,0.565,0.565,0.566,0.566,0.566,0.566,0.566,0.567,0.567,0.567,0.567,0.567,0.567,0.567,0.567,0.567,0.567,0.567,0.567,0.567,0.567,0.567,0.568,0.568,0.568,0.568,0.568,0.568,0.568,0.568,0.569,0.569,0.569,0.569,0.569,0.57,0.57,0.571,0.571,0.571,0.571,0.571,0.571,0.571,0.571,0.571,0.571,0.571,0.571,0.571,0.571,0.571,0.571,0.571,0.571,0.572,0.572,0.572,0.572,0.573,0.573,0.574,0.574,0.575,0.575,0.575,0.575,0.575,0.575,0.574,0.574,0.573,0.573,0.573,0.573,0.572,0.572,0.572,0.572,0.573,0.573,0.573,0.574,0.574,0.575,0.576,0.576,0.576,0.577,0.577,0.577,0.577,0.577,0.577,0.577,0.576,0.577,0.577,0.577,0.577,0.577,0.577,0.577,0.577,0.578,0.578,0.578,0.579,0.579,0.579,0.579,0.579,0.579,0.579,0.578,0.578,0.578,0.578,0.578,0.578,0.578,0.578,0.579,0.579,0.579,0.579,0.58,0.58,0.581,0.581,0.584,0.587,0.591,0.595,0.599,0.604,0.607,0.611,0.612,0.614,0.615,0.615,0.615,0.615,0.615,0.614,0.614,0.614,0.614,0.614,0.613,0.612,0.612,0.613,0.613,0.613,0.612,0.613,0.613,0.614,0.614,0.615,0.615,0.616,0.617,0.619,0.62,0.62,0.621,0.622,0.623,0.623,0.623,0.623,0.623,0.623,0.624,0.624,0.624,0.624,0.625,0.625,0.625,0.625,0.625,0.625,0.626,0.626,0.626,0.626,0.626,0.626,0.627,0.627,0.627,0.627,0.627,0.627,0.627,0.627,0.627,0.627,0.627,0.627,0.627,0.627,0.627,0.628,0.628,0.628,0.628,0.628,0.628,0.629,0.629,0.63,0.63,0.63,0.631,0.631,0.631,0.632,0.632,0.632,0.632,0.632,0.632,0.632,0.632,0.632,0.632,0.632,0.632,0.632,0.632,0.631,0.631,0.631,0.631,0.631,0.631,0.631,0.631,0.631,0.631,0.631,0.631,0.631,0.631,0.632,0.632,0.632,0.632,0.632,0.633,0.633,0.633,0.634,0.634,0.634,0.634,0.634,0.634,0.634,0.634,0.634,0.634,0.634,0.634,0.634,0.634,0.634,0.634,0.634,0.634,0.634,0.634,0.634,0.634,0.633,0.632,0.632,0.631,0.631,0.63,0.628,0.627,0.626,0.624,0.623,0.62,0.617,0.615,0.611,0.607,0.604,0.601,0.598,0.596,0.594,0.591,0.589,0.587,0.586,0,0,0,0,0,0,0.534,0.53,0.529,0.528,0.527,0.526,0.526,0.526,0.526,0.525,0.524,0.524,0.524,0.524,0.524,0.524,0,0.615,0.615,0.616,0.616,0.617,0.618,0.62,0.621,0.623,0.624,0.626,0.627,0.629,0.631,0.631,0.632,0.634,0.635,0.635,0.636,0.636,0.637,0.637,0.637,0.638,0.638,0.638,0.638,0.639,0.639,0.64,0.64,0.64,0.64,0.641,0.641,0.641,0.641,0.642,0.643,0.643,0.643,0.644,0.644,0.645,0.645,0.645,0.645,0.645,0.646,0.646,0.646,0.646,0.646,0.646,0.647,0.647,0.647,0.647,0.647,0.648,0.648,0.648,0.648,0.648,0.648,0.648,0.648,0.648,0.648,0.648,0.648,0.648,0.648,0.648,0.648,0.647,0.647,0.647,0.647,0.647,0.648,0.648,0.648,0.648,0.648,0.648,0.648,0.648,0.649,0.649,0.65,0.65,0.65,0.65,0.65,0.65,0.65,0.65,0.65,0.65,0.65,0.65,0.65,0.65,0.65,0.65,0.65,0.649
0.597,0.597,0.597,0.597,0.597,0.597,0.597,0.598,0.598,0.598,0.598,0.598,0.598,0.598,0.598,0.598,0.598,0.597,0.597,0.597,0.596,0.596,0.596,0.595,0.594,0.592,0.588,0.583,0,0,0.57,0.566,0.564,0.563,0.561,0.561,0.561,0.561,0.561,0.561,0.56,0.56,0.56,0.56,0.561,0.561,0.561,0.561,0.561,0.561,0.561,0.561,0.562,0.562,0.562,0.562,0.562,0.562,0.562,0.562,0.563,0.562,0.562,0.562,0.562,0.562,0.562,0.562,0.562,0.562,0.562,0.563,0.563,0.563,0.563,0.564,0.564,0.564,0.564,0.565,0.565,0.565,0.566,0.566,0.566,0.566,0.567,0.567,0.567,0.567,0.567,0.567,0.568,0.567,0.568,0.568,0.568,0.568,0.568,0.568,0.568,0.568,0.568,0.568,0.568,0.568,0.568,0.568,0.569,0.569,0.569,0.569,0.569,0.57,0.57,0.57,0.571,0.571,0.571,0.572,0.572,0.572,0.572,0.572,0.572,0.572,0.572,0.572,0.572,0.572,0.572,0.572,0.572,0.572,0.572,0.572,0.572,0.572,0.572,0.572,0.573,0.574,0.574,0.575,0.575,0.576,0.576,0.576,0.576,0.576,0.575,0.575,0.574,0.574,0.574,0.573,0.573,0.573,0.573,0.573,0.573,0.574,0.574,0.574,0.575,0.576,0.576,0.576,0.577,0.577,0.577,0.577,0.577,0.577,0.577,0.577,0.577,0.577,0.577,0.577,0.577,0.577,0.577,0.577,0.578,0.578,0.578,0.578,0.579,0.579,0.579,0.579,0.579,0.579,0.579,0.578,0.578,0.578,0.578,0.579,0.579,0.579,0.579,0.579,0.579,0.58,0.58,0.58,0.58,0.581,0.582,0.584,0.587,0.591,0.595,0.598,0.602,0.606,0.609,0.611,0.612,0.612,0.612,0.612,0.613,0.612,0.612,0.612,0.612,0.611,0.611,0.611,0.611,0.611,0.611,0.611,0.611,0.61,0.611,0.611,0.611,0.612,0.613,0.614,0.614,0.615,0.617,0.617,0.619,0.62,0.62,0.62,0.621,0.621,0.621,0.621,0.621,0.622,0.622,0.622,0.623,0.623,0.623,0.623,0.623,0.623,0.624,0.624,0.624,0.624,0.624,0.624,0.624,0.624,0.624,0.624,0.624,0.624,0.624,0.624,0.625,0.625,0.625,0.625,0.625,0.625,0.625,0.625,0.625,0.625,0.625,0.626,0.626,0.626,0.627,0.627,0.627,0.627,0.628,0.628,0.628,0.629,0.629,0.63,0.63,0.63,0.63,0.63,0.63,0.63,0.63,0.63,0.63,0.63,0.63,0.629,0.629,0.629,0.629,0.629,0.629,0.629,0.629,0.629,0.629,0.629,0.629,0.629,0.629,0.63,0.63,0.63,0.63,0.63,0.63,0.631,0.631,0.631,0.631,0.631,0.632,0.632,0.632,0.632,0.632,0.632,0.632,0.632,0.632,0.632,0.632,0.632,0.632,0.632,0.632,0.632,0.632,0.632,0.632,0.631,0.631,0.631,0.63,0.63,0.629,0.628,0.627,0.626,0.625,0.624,0.623,0.62,0.618,0.616,0.612,0.609,0.606,0.603,0.6,0.597,0.595,0.592,0.589,0.586,0.584,0,0.571,0.564,0,0,0.538,0.533,0.531,0.531,0.529,0.528,0.528,0.528,0.528,0.528,0.527,0.526,0.526,0.526,0.526,0.526,0.525,0,0.615,0.615,0.615,0.616,0.617,0.617,0.619,0.62,0.622,0.624,0.625,0.627,0.628,0.629,0.63,0.631,0.632,0.632,0.632,0.633,0.634,0.634,0.635,0.635,0.635,0.636,0.636,0.637,0.637,0.638,0.638,0.638,0.638,0.638,0.639,0.639,0.639,0.64,0.64,0.641,0.641,0.641,0.641,0.642,0.642,0.642,0.643,0.643,0.643,0.643,0.643,0.644,0.644,0.644,0.644,0.645,0.645,0.645,0.645,0.645,0.645,0.645,0.645,0.645,0.646,0.646,0.646,0.646,0.646,0.646,0.646,0.646,0.645,0.645,0.645,0.645,0.645,0.645,0.645,0.645,0.645,0.645,0.645,0.645,0.645,0.645,0.646,0.646,0.646,0.646,0.646,0.647,0.647,0.647,0.647,0.648,0.648,0.648,0.648,0.648,0.647,0.647,0.647,0.647,0.647,0.647,0.646,0.646,0.646
0.595,0.595,0.595,0.595,0.595,0.595,0.595,0.596,0.596,0.596,0.596,0.596,0.596,0.596,0.596,0.595,0.595,0.595,0.595,0.594,0.594,0.594,0.593,0.593,0.591,0.59,0.587,0.583,0.579,0.575,0.571,0.568,0.565,0.563,0.562,0.561,0.561,0.561,0.561,0.561,0.561,0.561,0.561,0.561,0.561,0.561,0.561,0.561,0.561,0.561,0.561,0.562,0.562,0.562,0.562,0.562,0.563,0.563,0.563,0.563,0.563,0.563,0.563,0.563,0.563,0.563,0.563,0.563,0.563,0.563,0.563,0.563,0.563,0.563,0.564,0.564,0.564,0.565,0.565,0.565,0.566,0.566,0.566,0.566,0.567,0.567,0.567,0.567,0.567,0.568,0.568,0.568,0.568,0.568,0.568,0.568,0.568,0.568,0.568,0.568,0.568,0.569,0.569,0.569,0.569,0.569,0.569,0.569,0.569,0.569,0.569,0.57,0.57,0.57,0.571,0.571,0.572,0.572,0.572,0.572,0.572,0.572,0.572,0.572,0.572,0.572,0.572,0.572,0.572,0.572,0.572,0.572,0.572,0.572,0.572,0.572,0.572,0.572,0.573,0.573,0.573,0.574,0.575,0.575,0.576,0.576,0.576,0.577,0.577,0.576,0.576,0.575,0.575,0.574,0.574,0.574,0.574,0.574,0.574,0.574,0.574,0.574,0.575,0.575,0.575,0.576,0.576,0.576,0.577,0.577,0.577,0.577,0.577,0.577,0.577,0.577,0.577,0.577,0.577,0.577,0.577,0.577,0.578,0.578,0.578,0.578,0.578,0.579,0.579,0.579,0.579,0.579,0.579,0.579,0.579,0.578,0.579,0.579,0.579,0.579,0.579,0.579,0.579,0.58,0.58,0.58,0.58,0.581,0.581,0.582,0.583,0.584,0.588,0.591,0.594,0.597,0.601,0.604,0.607,0.609,0.61,0.61,0.61,0.611,0.611,0.61,0.61,0.61,0.61,0.609,0.609,0.609,0.609,0.609,0.609,0.609,0.609,0.608,0.609,0.609,0.61,0.61,0.611,0.611,0.612,0.614,0.615,0.616,0.616,0.617,0.618,0.619,0.619,0.619,0.619,0.619,0.62,0.62,0.62,0.62,0.62,0.621,0.621,0.621,0.621,0.621,0.621,0.621,0.621,0.621,0.622,0.622,0.622,0.622,0.622,0.622,0.622,0.622,0.622,0.622,0.623,0.623,0.623,0.623,0.623,0.623,0.623,0.623,0.623,0.623,0.623,0.624,0.624,0.624,0.624,0.624,0.625,0.625,0.625,0.625,0.626,0.626,0.627,0.627,0.627,0.627,0.627,0.627,0.627,0.627,0.627,0.627,0.627,0.627,0.627,0.627,0.627,0.627,0.627,0.627,0.627,0.627,0.627,0.627,0.627,0.627,0.627,0.627,0.627,0.627,0.627,0.627,0.628,0.628,0.628,0.628,0.628,0.629,0.629,0.63,0.63,0.63,0.63,0.63,0.63,0.63,0.63,0.63,0.63,0.63,0.63,0.63,0.63,0.63,0.63,0.63,0.63,0.63,0.63,0.63,0.629,0.629,0.628,0.628,0.627,0.627,0.625,0.625,0.624,0.623,0.621,0.62,0.618,0.616,0.612,0.61,0.606,0.604,0.601,0.598,0.595,0.591,0.588,0.584,0,0.575,0.567,0.559,0,0.543,0.538,0.534,0.532,0.532,0.531,0.53,0.53,0.53,0.53,0.53,0.529,0.528,0.528,0.528,0,0,0,0,0.614,0.614,0.615,0.615,0.616,0.617,0.619,0.62,0.621,0.623,0.624,0.625,0.627,0.628,0.628,0.629,0.63,0.63,0.63,0.631,0.631,0.632,0.632,0.633,0.633,0.634,0.634,0.635,0.635,0.635,0.635,0.636,0.636,0.637,0.637,0.637,0.637,0.638,0.638,0.638,0.638,0.639,0.64,0.64,0.64,0.64,0.64,0.64,0.641,0.641,0.641,0.641,0.641,0.641,0.641,0.642,0.642,0.642,0.642,0.642,0.643,0.643,0.643,0.643,0.643,0.643,0.643,0.643,0.643,0.643,0.643,0.643,0.643,0.643,0.643,0.643,0.643,0.643,0.643,0.643,0.643,0.643,0.643,0.643,0.643,0.643,0.643,0.643,0.644,0.644,0.644,0.645,0.645,0.645,0.645,0.645,0.645,0.645,0.645,0.645,0.645,0.645,0.645,0.645,0.645,0.645,0.644,0.644,0.645
0.592,0.593,0.593,0.593,0.593,0.593,0.593,0.594,0.594,0.594,0.594,0.594,0.594,0.593,0.593,0.592,0.592,0.592,0.591,0.591,0.591,0.591,0.591,0.59,0.59,0.588,0.585,0.582,0.578,0.575,0.571,0.569,0.567,0.565,0.563,0.562,0.562,0.562,0.561,0.561,0.561,0.561,0.561,0.561,0.561,0.561,0.561,0.561,0.561,0.561,0.562,0.562,0.562,0.562,0.562,0.563,0.563,0.563,0.563,0.563,0.563,0.563,0.563,0.563,0.563,0.563,0.563,0.563,0.563,0.563,0.563,0.564,0.564,0.564,0.564,0.565,0.565,0.565,0.566,0.566,0.566,0.566,0.567,0.567,0.567,0.567,0.567,0.568,0.568,0.568,0.568,0.568,0.569,0.569,0.569,0.569,0.569,0.569,0.569,0.569,0.569,0.569,0.569,0.569,0.569,0.569,0.569,0.569,0.57,0.57,0.57,0.571,0.571,0.571,0.571,0.572,0.572,0.572,0.573,0.573,0.573,0.573,0.573,0.573,0.573,0.573,0.573,0.572,0.572,0.572,0.572,0.572,0.572,0.572,0.572,0.572,0.572,0.573,0.573,0.573,0.574,0.574,0.575,0.575,0.576,0.576,0.576,0.577,0.577,0.577,0.576,0.576,0.575,0.575,0.574,0.574,0.574,0.574,0.574,0.574,0.574,0.574,0.575,0.575,0.576,0.576,0.576,0.577,0.577,0.577,0.578,0.578,0.578,0.578,0.578,0.578,0.578,0.578,0.578,0.578,0.578,0.578,0.578,0.578,0.578,0.578,0.578,0.578,0.579,0.579,0.579,0.579,0.579,0.579,0.579,0.579,0.579,0.579,0.579,0.579,0.58,0.58,0.58,0.58,0.58,0.581,0.581,0.581,0.581,0.582,0.583,0.585,0.588,0.591,0.594,0.597,0.6,0.603,0.606,0.607,0.608,0.609,0.608,0.609,0.609,0.608,0.608,0.607,0.607,0.607,0.606,0.607,0.606,0.606,0.606,0.606,0.606,0.606,0.607,0.607,0.607,0.608,0.609,0.61,0.61,0.612,0.614,0.614,0.615,0.615,0.616,0.616,0.617,0.617,0.617,0.617,0.617,0.618,0.618,0.618,0.619,0.619,0.619,0.619,0.619,0.619,0.619,0.619,0.619,0.62,0.62,0.62,0.62,0.619,0.62,0.62,0.62,0.62,0.62,0.62,0.62,0.62,0.62,0.62,0.62,0.621,0.621,0.621,0.621,0.621,0.621,0.621,0.621,0.621,0.622,0.622,0.623,0.623,0.623,0.623,0.624,0.624,0.624,0.624,0.624,0.624,0.624,0.624,0.625,0.625,0.624,0.624,0.625,0.625,0.625,0.625,0.625,0.625,0.625,0.625,0.625,0.625,0.625,0.625,0.625,0.625,0.625,0.625,0.625,0.625,0.625,0.625,0.625,0.625,0.625,0.626,0.626,0.627,0.627,0.627,0.627,0.628,0.628,0.628,0.628,0.628,0.628,0.628,0.628,0.628,0.628,0.628,0.628,0.628,0.628,0.628,0.628,0.628,0.628,0.627,0.627,0.627,0.626,0.626,0.625,0.625,0.624,0.623,0.622,0.621,0.62,0.619,0.617,0.615,0.612,0.609,0.606,0,0.601,0.598,0.595,0.592,0.589,0.583,0.579,0.572,0.564,0.556,0,0.542,0.538,0.536,0.534,0.533,0.533,0.532,0.532,0.532,0.531,0.531,0.531,0.53,0.53,0,0,0,0,0,0,0.614,0.615,0.615,0.616,0.617,0.618,0.619,0.621,0.622,0.623,0.624,0.625,0.626,0.627,0.627,0.627,0.628,0.628,0.629,0.629,0.63,0.63,0.631,0.631,0.632,0.632,0.633,0.633,0.634,0.634,0.634,0.634,0.634,0.635,0.635,0.635,0.635,0.636,0.636,0.637,0.637,0.637,0.637,0.638,0.638,0.638,0.638,0.638,0.638,0.638,0.639,0.639,0.639,0.639,0.639,0.64,0.64,0.64,0.64,0.64,0.64,0.64,0.64,0.64,0.64,0.64,0.64,0.64,0.64,0.64,0.64,0.64,0.64,0.64,0.64,0.64,0.64,0.64,0.64,0.64,0.64,0.64,0.641,0.641,0.641,0.641,0.641,0.641,0.641,0.641,0.642,0.642,0.642,0.642,0.643,0.643,0.643,0.643,0.643,0.643,0.642,0.642,0.642,0.642,0.642,0.642,0.642,0.642
0.591,0.591,0.591,0.591,0.591,0.591,0.591,0.591,0.591,0.591,0.591,0.591,0.591,0.591,0.59,0.59,0.59,0.59,0.589,0.589,0.589,0.589,0.589,0.588,0.588,0.587,0.584,0.581,0.578,0.575,0.573,0.57,0.568,0.566,0.564,0.563,0.563,0.562,0.562,0.562,0.562,0.561,0.561,0.561,0.561,0.561,0.562,0.561,0.562,0.562,0.562,0.562,0.562,0.562,0.563,0.563,0.563,0.563,0.563,0.563,0.563,0.563,0.563,0.563,0.563,0.563,0.563,0.563,0.563,0.564,0.564,0.564,0.564,0.564,0.565,0.565,0.565,0.566,0.566,0.566,0.567,0.567,0.567,0.568,0.568,0.568,0.568,0.568,0.569,0.569,0.569,0.569,0.569,0.569,0.569,0.569,0.569,0.569,0.569,0.569,0.569,0.569,0.569,0.569,0.569,0.57,0.57,0.57,0.57,0.57,0.571,0.571,0.571,0.572,0.572,0.572,0.573,0.573,0.573,0.573,0.573,0.573,0.573,0.573,0.573,0.573,0.573,0.573,0.573,0.573,0.572,0.572,0.572,0.572,0.572,0.572,0.573,0.573,0.573,0.573,0.574,0.574,0.575,0.575,0.576,0.576,0.576,0.577,0.577,0.576,0.576,0.576,0.575,0.575,0.574,0.574,0.574,0.574,0.574,0.574,0.574,0.575,0.575,0.575,0.576,0.576,0.577,0.577,0.577,0.577,0.578,0.578,0.578,0.578,0.578,0.578,0.578,0.578,0.578,0.578,0.578,0.578,0.578,0.578,0.578,0.578,0.579,0.579,0.579,0.579,0.579,0.579,0.579,0.579,0.579,0.579,0.579,0.58,0.58,0.58,0.58,0.58,0.58,0.581,0.581,0.581,0.581,0.582,0.582,0.583,0.584,0.586,0.588,0.591,0.594,0.596,0.599,0.601,0.604,0.605,0.606,0.606,0.606,0.606,0.607,0.606,0.606,0.606,0.605,0.605,0.605,0.605,0.604,0.604,0.604,0.605,0.605,0.604,0.605,0.605,0.605,0.606,0.607,0.607,0.608,0.609,0.611,0.612,0.612,0.614,0.614,0.615,0.615,0.615,0.615,0.616,0.616,0.616,0.616,0.616,0.616,0.616,0.616,0.617,0.617,0.617,0.617,0.617,0.617,0.617,0.617,0.617,0.617,0.617,0.617,0.617,0.617,0.617,0.617,0.617,0.618,0.618,0.618,0.619,0.619,0.619,0.619,0.619,0.619,0.619,0.619,0.619,0.619,0.62,0.62,0.62,0.62,0.62,0.621,0.621,0.621,0.621,0.621,0.622,0.622,0.622,0.622,0.622,0.622,0.622,0.622,0.622,0.623,0.623,0.623,0.623,0.623,0.623,0.623,0.623,0.623,0.623,0.623,0.623,0.623,0.623,0.623,0.623,0.623,0.623,0.623,0.623,0.623,0.623,0.623,0.624,0.624,0.624,0.625,0.625,0.625,0.625,0.625,0.626,0.626,0.626,0.626,0.626,0.626,0.626,0.626,0.626,0.626,0.626,0.626,0.626,0.626,0.625,0.625,0.625,0.625,0.625,0.624,0.624,0.623,0.623,0.623,0.621,0.621,0.62,0.619,0.617,0.616,0.614,0.611,0.609,0.606,0.604,0.601,0.598,0.596,0.592,0.588,0.582,0.577,0.569,0.561,0.554,0,0.542,0.539,0.536,0.535,0.535,0.534,0.533,0.533,0.533,0.533,0.533,0.532,0.532,0.531,0.531,0,0,0,0,0,0.614,0.614,0.615,0.616,0.616,0.617,0.619,0.62,0.621,0.622,0.623,0.624,0.624,0.624,0.625,0.625,0.626,0.626,0.627,0.627,0.628,0.628,0.629,0.629,0.63,0.63,0.631,0.631,0.631,0.632,0.632,0.632,0.632,0.633,0.633,0.633,0.634,0.634,0.634,0.634,0.635,0.635,0.635,0.635,0.635,0.635,0.636,0.636,0.636,0.637,0.637,0.637,0.637,0.637,0.637,0.637,0.637,0.637,0.637,0.637,0.637,0.637,0.638,0.638,0.638,0.638,0.637,0.637,0.637,0.637,0.637,0.637,0.637,0.637,0.638,0.638,0.638,0.638,0.638,0.638,0.638,0.638,0.638,0.638,0.639,0.639,0.639,0.639,0.64,0.64,0.64,0.64,0.64,0.64,0.64,0.64,0.64,0.64,0.64,0.64,0.64,0.64,0.64,0.64,0.64,0.64,0.64,0.64
0.589,0.589,0.589,0.589,0.589,0.589,0.589,0.589,0.589,0.589,0.589,0.589,0.589,0.589,0.588,0.588,0.588,0.588,0.587,0.587,0.587,0.587,0.587,0.586,0.586,0.585,0.583,0.58,0.578,0.575,0.573,0.57,0.568,0.567,0.565,0.564,0.563,0.563,0.563,0.563,0.562,0.562,0.561,0.562,0.562,0.562,0.562,0.562,0.562,0.562,0.562,0.562,0.562,0.563,0.563,0.563,0.563,0.563,0.563,0.563,0.563,0.563,0.563,0.564,0.564,0.564,0.564,0.564,0.564,0.564,0.564,0.564,0.565,0.565,0.565,0.565,0.566,0.566,0.566,0.567,0.567,0.567,0.568,0.568,0.568,0.569,0.569,0.569,0.569,0.569,0.569,0.569,0.569,0.569,0.57,0.569,0.569,0.569,0.569,0.569,0.57,0.57,0.57,0.57,0.57,0.57,0.57,0.57,0.571,0.571,0.571,0.572,0.572,0.572,0.573,0.573,0.573,0.573,0.573,0.573,0.573,0.573,0.573,0.573,0.573,0.573,0.573,0.573,0.573,0.573,0.573,0.573,0.573,0.573,0.573,0.573,0.573,0.573,0.573,0.573,0.574,0.574,0.575,0.575,0.576,0.576,0.576,0.576,0.576,0.576,0.576,0.575,0.575,0.575,0.574,0.574,0.574,0.574,0.574,0.574,0.575,0.575,0.575,0.576,0.576,0.576,0.577,0.577,0.577,0.578,0.578,0.578,0.578,0.578,0.578,0.578,0.578,0.578,0.578,0.578,0.578,0.578,0.578,0.578,0.578,0.578,0.578,0.578,0.578,0.579,0.579,0.579,0.579,0.579,0.579,0.579,0.58,0.58,0.58,0.581,0.58,0.581,0.581,0.581,0.581,0.582,0.582,0.582,0.583,0.583,0.585,0.586,0.588,0.591,0.594,0.596,0.598,0.6,0.603,0.604,0.605,0.605,0.604,0.604,0.604,0.604,0.604,0.604,0.603,0.603,0.603,0.603,0.603,0.603,0.603,0.603,0.603,0.603,0.603,0.603,0.604,0.604,0.605,0.605,0.606,0.607,0.609,0.61,0.61,0.611,0.612,0.612,0.613,0.613,0.614,0.614,0.614,0.614,0.614,0.614,0.615,0.615,0.615,0.615,0.615,0.615,0.615,0.615,0.615,0.615,0.615,0.615,0.615,0.615,0.615,0.615,0.615,0.615,0.615,0.615,0.615,0.616,0.616,0.616,0.616,0.616,0.616,0.617,0.617,0.617,0.617,0.617,0.617,0.617,0.617,0.617,0.618,0.618,0.619,0.619,0.619,0.619,0.619,0.62,0.62,0.62,0.62,0.62,0.62,0.62,0.62,0.62,0.62,0.62,0.62,0.62,0.62,0.62,0.62,0.62,0.62,0.62,0.62,0.62,0.62,0.62,0.62,0.62,0.62,0.62,0.621,0.621,0.621,0.621,0.621,0.621,0.622,0.622,0.623,0.623,0.623,0.623,0.623,0.624,0.624,0.624,0.624,0.624,0.624,0.624,0.624,0.624,0.624,0.624,0.624,0.624,0.624,0.624,0.624,0.623,0.623,0.623,0.623,0.622,0.621,0.621,0.62,0.62,0.619,0.618,0.617,0.616,0.614,0.612,0.61,0.608,0.605,0.603,0.6,0.597,0.594,0.591,0,0.58,0.575,0.567,0.559,0.552,0.546,0.542,0.539,0.537,0.536,0.535,0.535,0.535,0.534,0.534,0.534,0.534,0.534,0.533,0.533,0.533,0,0,0,0,0.614,0.614,0.615,0,0.616,0.616,0.617,0.618,0.619,0.62,0.621,0.621,0.622,0.623,0.623,0.623,0.624,0.624,0.624,0.625,0.625,0.625,0.626,0.627,0.627,0.628,0.628,0.628,0.629,0.63,0.63,0.63,0.63,0.631,0.631,0.631,0.631,0.631,0.631,0.632,0.632,0.632,0.632,0.633,0.633,0.633,0.634,0.634,0.634,0.634,0.634,0.634,0.634,0.634,0.634,0.634,0.634,0.634,0.634,0.634,0.635,0.635,0.635,0.635,0.635,0.635,0.635,0.635,0.635,0.635,0.635,0.635,0.635,0.635,0.635,0.635,0.635,0.635,0.635,0.635,0.635,0.636,0.636,0.636,0.637,0.637,0.637,0.637,0.637,0.637,0.637,0.637,0.638,0.638,0.638,0.638,0.638,0.638,0.638,0.638,0.638,0.638,0.638,0.638,0.638,0.638,0.638,0.638,0.638
0.587,0.587,0.587,0.587,0.587,0.587,0.587,0.587,0.587,0.587,0.587,0.587,0.587,0.587,0.587,0.586,0.586,0.586,0.586,0.586,0.585,0.585,0.585,0.585,0.584,0.584,0.582,0.58,0.578,0.576,0.573,0.571,0.569,0.568,0.566,0.565,0.564,0.564,0.563,0.563,0.563,0.563,0.562,0.562,0.562,0.562,0.562,0.562,0.562,0.562,0.562,0.562,0.563,0.563,0.563,0.563,0.563,0.563,0.564,0.564,0.563,0.564,0.564,0.564,0.564,0.564,0.564,0.564,0.564,0.565,0.565,0.565,0.565,0.566,0.566,0.566,0.566,0.567,0.567,0.567,0.568,0.568,0.568,0.569,0.569,0.569,0.569,0.569,0.569,0.57,0.57,0.57,0.57,0.57,0.57,0.57,0.57,0.57,0.57,0.57,0.57,0.57,0.57,0.57,0.57,0.571,0.571,0.571,0.571,0.572,0.572,0.572,0.573,0.573,0.573,0.573,0.573,0.574,0.574,0.574,0.573,0.573,0.573,0.573,0.573,0.573,0.573,0.573,0.573,0.573,0.573,0.573,0.573,0.573,0.573,0.573,0.573,0.573,0.573,0.573,0.574,0.574,0.574,0.575,0.575,0.575,0.576,0.576,0.576,0.576,0.575,0.575,0.575,0.574,0.574,0.574,0.574,0.574,0.574,0.574,0.575,0.575,0.575,0.576,0.576,0.576,0.577,0.577,0.578,0.578,0.578,0.578,0.578,0.579,0.579,0.579,0.578,0.578,0.578,0.578,0.578,0.578,0.578,0.578,0.578,0.578,0.578,0.578,0.578,0.578,0.579,0.579,0.579,0.579,0.58,0.58,0.58,0.58,0.581,0.581,0.581,0.581,0.581,0.582,0.582,0.582,0.582,0.583,0.583,0.584,0.585,0.586,0.588,0.59,0.592,0.595,0.597,0.599,0.6,0.601,0.603,0.603,0.602,0.603,0.603,0.602,0.602,0.601,0.601,0.601,0.6,0.6,0.6,0.6,0.6,0.6,0.601,0.6,0.601,0.601,0.601,0.602,0.603,0.604,0.604,0.605,0.607,0.607,0.608,0.609,0.61,0.611,0.611,0.611,0.611,0.612,0.612,0.612,0.612,0.612,0.612,0.612,0.612,0.612,0.613,0.613,0.613,0.613,0.613,0.612,0.612,0.612,0.612,0.612,0.612,0.612,0.612,0.612,0.613,0.613,0.613,0.614,0.614,0.614,0.614,0.614,0.614,0.615,0.615,0.615,0.615,0.615,0.615,0.615,0.615,0.616,0.616,0.616,0.616,0.616,0.617,0.617,0.617,0.617,0.617,0.617,0.617,0.617,0.617,0.617,0.617,0.618,0.618,0.618,0.618,0.618,0.618,0.618,0.618,0.619,0.619,0.619,0.619,0.619,0.618,0.618,0.618,0.618,0.618,0.618,0.619,0.619,0.619,0.619,0.619,0.619,0.62,0.62,0.62,0.62,0.621,0.621,0.621,0.621,0.621,0.621,0.621,0.621,0.622,0.622,0.622,0.622,0.622,0.621,0.621,0.621,0.621,0.621,0.621,0.621,0.621,0.621,0.62,0.62,0.619,0.619,0.619,0.618,0.617,0.616,0.615,0.614,0.613,0.611,0.609,0.606,0.604,0.602,0.6,0.596,0.593,0.589,0.584,0,0,0.563,0.555,0.549,0.544,0.541,0.539,0.537,0.536,0.536,0.535,0.535,0.535,0.535,0.535,0.534,0.535,0.535,0.535,0.535,0,0,0,0.615,0.614,0.615,0.615,0.615,0.616,0.616,0.617,0.617,0.619,0.619,0.62,0.62,0.62,0.621,0.621,0.621,0.622,0.622,0.622,0.623,0.623,0.624,0.624,0.624,0.625,0.625,0.626,0.627,0.627,0.627,0.628,0.628,0.628,0.628,0.628,0.628,0.629,0.629,0.63,0.63,0.63,0.63,0.631,0.631,0.631,0.631,0.631,0.631,0.632,0.632,0.632,0.631,0.631,0.632,0.632,0.632,0.632,0.632,0.632,0.632,0.632,0.632,0.632,0.632,0.632,0.632,0.632,0.632,0.632,0.632,0.632,0.632,0.632,0.632,0.632,0.632,0.633,0.633,0.634,0.634,0.634,0.634,0.634,0.634,0.634,0.634,0.635,0.635,0.635,0.635,0.635,0.635,0.635,0.635,0.635,0.635,0.635,0.636,0.636,0.636,0.636,0.636,0.636,0.636,0.636,0.635,0.635,0.636,0.636
0.586,0.586,0.586,0.586,0.586,0.585,0.585,0.585,0.585,0.585,0.585,0.585,0.585,0.585,0.585,0.585,0.585,0.584,0.584,0.584,0.584,0.584,0.583,0.583,0.583,0.582,0.581,0.579,0.577,0.575,0.573,0.571,0.569,0.568,0.567,0.565,0.565,0.565,0.564,0.564,0.564,0.563,0.563,0.563,0.563,0.563,0.562,0.562,0.562,0.563,0.563,0.563,0.562,0.562,0.563,0.563,0.563,0.564,0.564,0.564,0.564,0.564,0.564,0.565,0.565,0.564,0.565,0.565,0.565,0.565,0.565,0.565,0.566,0.566,0.566,0.567,0.567,0.567,0.568,0.568,0.568,0.569,0.569,0.569,0.569,0.569,0.57,0.57,0.57,0.571,0.571,0.57,0.571,0.571,0.571,0.571,0.571,0.571,0.57,0.57,0.571,0.571,0.571,0.571,0.571,0.571,0.571,0.571,0.572,0.572,0.572,0.573,0.573,0.573,0.573,0.574,0.574,0.574,0.574,0.574,0.574,0.573,0.573,0.573,0.573,0.573,0.573,0.573,0.573,0.573,0.573,0.573,0.573,0.573,0.573,0.573,0.573,0.573,0.573,0.573,0.574,0.574,0.574,0.575,0.575,0.575,0.576,0.576,0.576,0.576,0.575,0.575,0.575,0.575,0.574,0.574,0.574,0.574,0.574,0.574,0.574,0.574,0.575,0.576,0.576,0.576,0.577,0.577,0.578,0.578,0.579,0.579,0.579,0.579,0.579,0.579,0.579,0.579,0.578,0.578,0.578,0.578,0.578,0.578,0.578,0.578,0.578,0.578,0.578,0.578,0.579,0.579,0.579,0.579,0.58,0.58,0.58,0.58,0.581,0.581,0.581,0.582,0.582,0.582,0.583,0.583,0.583,0.583,0.584,0.584,0.586,0.587,0.588,0.59,0.592,0.594,0.596,0.597,0.599,0.6,0.6,0.6,0.6,0.6,0.6,0.6,0.6,0.599,0.599,0.599,0.598,0.598,0.598,0.598,0.598,0.599,0.599,0.599,0.599,0.6,0.6,0.6,0.601,0.602,0.603,0.604,0.605,0.606,0.606,0.607,0.608,0.609,0.609,0.609,0.61,0.61,0.61,0.61,0.61,0.611,0.611,0.611,0.611,0.611,0.611,0.611,0.611,0.611,0.611,0.611,0.61,0.61,0.61,0.61,0.61,0.61,0.61,0.61,0.61,0.611,0.611,0.611,0.611,0.611,0.612,0.612,0.612,0.612,0.612,0.612,0.612,0.613,0.613,0.613,0.613,0.614,0.614,0.614,0.614,0.614,0.614,0.615,0.615,0.615,0.615,0.615,0.615,0.615,0.615,0.615,0.615,0.615,0.616,0.616,0.616,0.616,0.616,0.616,0.616,0.616,0.616,0.616,0.616,0.616,0.616,0.616,0.616,0.616,0.616,0.616,0.616,0.616,0.616,0.617,0.617,0.617,0.617,0.617,0.618,0.619,0.619,0.619,0.619,0.619,0.619,0.62,0.62,0.62,0.62,0.62,0.62,0.62,0.62,0.62,0.62,0.62,0.62,0.62,0.619,0.619,0.619,0.619,0.619,0.618,0.617,0.617,0.616,0.616,0.615,0.615,0.614,0.612,0.611,0.61,0.607,0.605,0.603,0.601,0.599,0.596,0.593,0.588,0.583,0.575,0.568,0,0,0.547,0.543,0.54,0.538,0.536,0.536,0.536,0.535,0.535,0.535,0.535,0.535,0.535,0.535,0.535,0,0,0,0,0,0,0.615,0.615,0.615,0.615,0.616,0.616,0.617,0.617,0.618,0.619,0.619,0.619,0.619,0.619,0.62,0.62,0.62,0.62,0.62,0.621,0.621,0.621,0.621,0.623,0.623,0.623,0.624,0.624,0.625,0.625,0.625,0.625,0.626,0.626,0.627,0.627,0.627,0.627,0.628,0.628,0.628,0.628,0.628,0.628,0.629,0.629,0.629,0.63,0.63,0.63,0.63,0.629,0.63,0.63,0.63,0.63,0.63,0.63,0.63,0.63,0.63,0.63,0.63,0.63,0.63,0.63,0.63,0.63,0.63,0.63,0.63,0.63,0.63,0.63,0.63,0.63,0.63,0.631,0.631,0.631,0.631,0.631,0.632,0.632,0.632,0.632,0.632,0.632,0.632,0.632,0.632,0.633,0.633,0.633,0.633,0.634,0.634,0.634,0.634,0.634,0.634,0.634,0.634,0.634,0.634,0.634,0.634,0.634,0.634
0.584,0.584,0.584,0.584,0.584,0.584,0.583,0.583,0.583,0.583,0.583,0.583,0.583,0.583,0.583,0.583,0.583,0.583,0.583,0.583,0.582,0.582,0.582,0.582,0.581,0.581,0.58,0.578,0.577,0.575,0.573,0.572,0.57,0.569,0.567,0.566,0.566,0.565,0.565,0.565,0.564,0.564,0.564,0.563,0.563,0.563,0.563,0.563,0.563,0.563,0.563,0.563,0.563,0.563,0.563,0.563,0.564,0.563,0.564,0.564,0.564,0.564,0.565,0.565,0.565,0.565,0.565,0.565,0.565,0.565,0.566,0.566,0.566,0.566,0.567,0.567,0.567,0.568,0.568,0.568,0.569,0.569,0.569,0.569,0.57,0.57,0.57,0.571,0.571,0.571,0.571,0.571,0.571,0.571,0.571,0.571,0.571,0.571,0.571,0.571,0.571,0.571,0.571,0.571,0.571,0.571,0.572,0.572,0.572,0.572,0.573,0.573,0.573,0.573,0.574,0.574,0.574,0.574,0.574,0.574,0.574,0.573,0.573,0.573,0.573,0.573,0.573,0.573,0.573,0.573,0.573,0.573,0.573,0.573,0.573,0.573,0.573,0.573,0.573,0.574,0.574,0.574,0.574,0.575,0.575,0.575,0.575,0.576,0.576,0.576,0.576,0.576,0.575,0.575,0.575,0.575,0.575,0.575,0.575,0.575,0.575,0.575,0.576,0.576,0.577,0.577,0.578,0.578,0.578,0.579,0.579,0.579,0.58,0.579,0.579,0.579,0.579,0.579,0.579,0.579,0.579,0.579,0.579,0.579,0.579,0.579,0.579,0.579,0.579,0.579,0.579,0.579,0.58,0.58,0.58,0.58,0.581,0.581,0.581,0.581,0.582,0.582,0.583,0.583,0.583,0.583,0.584,0.584,0.584,0.585,0.586,0.587,0.588,0.59,0.591,0.593,0.594,0.596,0.597,0.598,0.598,0.598,0.598,0.599,0.599,0.599,0.598,0.598,0.598,0.597,0.597,0.597,0.596,0.596,0.596,0.597,0.597,0.597,0.597,0.598,0.598,0.599,0.599,0.6,0.601,0.602,0.604,0.604,0.605,0.606,0.606,0.607,0.607,0.607,0.607,0.607,0.608,0.608,0.609,0.609,0.609,0.609,0.609,0.609,0.609,0.609,0.609,0.609,0.609,0.609,0.608,0.608,0.608,0.608,0.608,0.608,0.608,0.608,0.608,0.608,0.609,0.609,0.609,0.609,0.61,0.61,0.61,0.61,0.61,0.61,0.61,0.611,0.611,0.611,0.611,0.611,0.611,0.611,0.612,0.612,0.612,0.612,0.612,0.612,0.612,0.613,0.613,0.613,0.613,0.613,0.613,0.613,0.614,0.614,0.614,0.614,0.614,0.614,0.614,0.614,0.614,0.614,0.614,0.614,0.614,0.614,0.614,0.614,0.614,0.614,0.614,0.614,0.614,0.614,0.615,0.615,0.615,0.615,0.616,0.616,0.616,0.617,0.617,0.617,0.617,0.617,0.617,0.617,0.617,0.617,0.617,0.617,0.617,0.617,0.617,0.617,0.617,0.617,0.617,0.617,0.617,0.616,0.616,0.616,0.616,0.615,0.615,0.614,0.614,0.613,0.612,0.611,0.61,0.608,0.606,0.604,0.603,0.601,0.598,0.596,0.592,0.587,0.58,0.572,0.564,0,0,0.545,0.542,0.539,0.538,0.537,0.536,0.536,0.536,0.536,0.536,0.535,0.535,0.535,0.535,0,0,0,0,0,0,0.615,0.615,0.615,0.615,0.615,0.616,0.616,0.617,0.617,0.617,0.617,0.618,0.617,0.617,0.617,0.617,0.617,0.618,0.618,0.618,0.619,0.619,0.619,0.62,0.62,0.621,0.621,0.622,0.623,0.623,0.623,0.623,0.624,0.624,0.624,0.624,0.625,0.625,0.625,0.625,0.626,0.626,0.627,0.627,0.627,0.627,0.627,0.627,0.627,0.627,0.627,0.627,0.627,0.627,0.627,0.627,0.627,0.627,0.627,0.627,0.627,0.627,0.627,0.628,0.627,0.627,0.627,0.627,0.627,0.627,0.627,0.627,0.627,0.627,0.627,0.627,0.628,0.628,0.628,0.628,0.629,0.629,0.629,0.63,0.63,0.63,0.63,0.63,0.63,0.63,0.63,0.631,0.631,0.631,0.631,0.631,0.631,0.631,0.631,0.631,0.632,0.632,0.632,0.632,0.632,0.632,0.632,0.632,0.632,0.632
0.582,0.582,0.582,0.582,0.582,0.581,0.581,0.581,0.581,0.581,0.58,0.58,0.58,0.581,0.581,0.581,0.581,0.581,0.581,0.581,0.581,0.58,0.58,0.58,0.58,0.58,0.579,0.578,0.576,0.575,0.573,0.572,0.57,0.569,0.568,0.567,0.566,0.566,0.566,0.565,0.565,0.565,0.564,0.564,0.564,0.564,0.563,0.563,0.563,0.563,0.563,0.563,0.563,0.563,0.563,0.563,0.564,0.564,0.564,0.564,0.564,0.565,0.565,0.565,0.565,0.565,0.565,0.565,0.565,0.566,0.566,0.566,0.566,0.567,0.567,0.567,0.568,0.568,0.569,0.569,0.569,0.569,0.57,0.57,0.57,0.57,0.571,0.571,0.572,0.572,0.572,0.572,0.572,0.572,0.572,0.572,0.572,0.572,0.572,0.572,0.572,0.572,0.571,0.572,0.572,0.572,0.572,0.572,0.572,0.573,0.573,0.573,0.573,0.574,0.574,0.574,0.574,0.574,0.574,0.574,0.574,0.573,0.573,0.573,0.573,0.573,0.573,0.573,0.573,0.573,0.573,0.573,0.573,0.573,0.573,0.573,0.574,0.574,0.573,0.574,0.574,0.574,0.574,0.575,0.575,0.575,0.575,0.576,0.576,0.576,0.576,0.576,0.576,0.576,0.575,0.575,0.575,0.575,0.575,0.575,0.575,0.576,0.576,0.577,0.577,0.577,0.578,0.578,0.579,0.579,0.579,0.58,0.58,0.58,0.58,0.58,0.579,0.579,0.58,0.579,0.579,0.579,0.579,0.579,0.58,0.58,0.579,0.579,0.58,0.58,0.58,0.58,0.58,0.58,0.581,0.581,0.581,0.581,0.582,0.582,0.582,0.582,0.583,0.583,0.583,0.584,0.584,0.584,0.585,0.585,0.586,0.587,0.588,0.59,0.591,0.592,0.593,0.594,0.596,0.596,0.596,0.596,0.596,0.597,0.597,0.597,0.596,0.596,0.595,0.595,0.595,0.595,0.594,0.594,0.594,0.594,0.594,0.594,0.595,0.596,0.596,0.597,0.598,0.598,0.599,0.6,0.601,0.603,0.603,0.604,0.604,0.605,0.605,0.605,0.605,0.605,0.606,0.606,0.606,0.606,0.606,0.606,0.606,0.606,0.606,0.606,0.606,0.606,0.606,0.606,0.606,0.606,0.606,0.606,0.606,0.606,0.606,0.606,0.606,0.606,0.606,0.606,0.607,0.607,0.607,0.607,0.607,0.608,0.608,0.608,0.608,0.609,0.609,0.609,0.609,0.609,0.609,0.609,0.609,0.61,0.61,0.61,0.61,0.61,0.61,0.61,0.61,0.61,0.611,0.611,0.611,0.611,0.611,0.611,0.611,0.611,0.611,0.611,0.611,0.611,0.611,0.611,0.611,0.611,0.611,0.611,0.611,0.611,0.611,0.611,0.611,0.612,0.612,0.612,0.612,0.612,0.613,0.613,0.614,0.614,0.614,0.614,0.615,0.615,0.615,0.615,0.615,0.615,0.615,0.615,0.615,0.615,0.615,0.615,0.615,0.615,0.615,0.615,0.615,0.615,0.615,0.615,0.615,0.614,0.614,0.614,0.613,0.612,0.612,0.611,0.61,0.609,0.608,0.606,0.605,0.603,0.601,0.6,0.597,0.595,0.59,0.585,0.578,0.569,0,0,0.547,0.543,0.54,0.539,0.537,0.536,0.536,0.536,0.536,0.535,0.536,0.536,0.536,0.536,0.536,0.537,0.539,0.54,0,0.612,0.613,0.614,0.614,0.614,0.615,0.615,0.615,0.616,0.616,0.616,0.616,0.616,0.616,0.616,0.616,0.616,0.616,0.616,0.616,0.616,0.616,0.616,0.617,0.617,0.617,0.618,0.619,0.619,0.62,0.62,0.62,0.621,0.621,0.621,0.621,0.622,0.623,0.623,0.623,0.623,0.624,0.624,0.624,0.624,0.625,0.625,0.625,0.625,0.625,0.625,0.625,0.625,0.625,0.625,0.625,0.625,0.625,0.625,0.625,0.625,0.625,0.625,0.625,0.625,0.625,0.625,0.625,0.625,0.625,0.624,0.624,0.624,0.624,0.624,0.624,0.625,0.625,0.625,0.625,0.626,0.626,0.627,0.627,0.627,0.627,0.627,0.628,0.628,0.628,0.628,0.628,0.628,0.628,0.628,0.628,0.628,0.629,0.629,0.629,0.63,0.63,0.63,0.63,0.63,0.63,0.63,0.63,0.63,0.63,0.63,0.63
0.58,0.58,0.58,0.58,0.579,0.579,0.579,0.579,0.578,0.578,0.578,0.578,0.578,0.578,0.578,0.578,0.578,0.579,0.579,0.579,0.579,0.579,0.579,0.579,0.578,0.578,0.578,0.577,0.575,0.574,0.573,0.572,0.57,0.569,0.568,0.567,0.567,0.567,0.566,0.566,0.566,0.565,0.565,0.564,0.564,0.564,0.564,0.563,0.563,0.563,0.563,0.563,0.563,0.563,0.563,0.563,0.564,0.564,0.564,0.565,0.565,0.565,0.566,0.566,0.566,0.566,0.566,0.566,0.566,0.566,0.567,0.567,0.567,0.567,0.568,0.568,0.568,0.568,0.569,0.569,0.569,0.569,0.57,0.57,0.57,0.571,0.571,0.571,0.572,0.572,0.572,0.572,0.572,0.572,0.572,0.572,0.572,0.572,0.572,0.572,0.572,0.572,0.572,0.572,0.572,0.572,0.572,0.572,0.572,0.573,0.573,0.573,0.573,0.573,0.573,0.574,0.574,0.574,0.574,0.574,0.574,0.574,0.573,0.573,0.573,0.573,0.573,0.573,0.573,0.573,0.573,0.573,0.573,0.574,0.574,0.574,0.574,0.574,0.574,0.574,0.574,0.574,0.575,0.575,0.575,0.576,0.576,0.577,0.577,0.577,0.577,0.576,0.576,0.576,0.576,0.576,0.576,0.576,0.576,0.575,0.576,0.576,0.576,0.577,0.577,0.578,0.578,0.578,0.579,0.579,0.579,0.58,0.58,0.58,0.58,0.58,0.58,0.58,0.58,0.58,0.579,0.579,0.58,0.58,0.58,0.58,0.58,0.58,0.58,0.58,0.581,0.581,0.581,0.581,0.581,0.581,0.582,0.582,0.582,0.582,0.583,0.583,0.583,0.583,0.584,0.584,0.584,0.584,0.585,0.585,0.586,0.587,0.588,0.589,0.59,0.591,0.592,0.593,0.594,0.594,0.595,0.595,0.594,0.594,0.594,0.594,0.594,0.593,0.593,0.592,0.591,0.591,0.591,0.591,0.591,0.591,0.591,0.592,0.592,0.593,0.594,0.595,0.596,0.597,0.597,0.599,0.6,0.601,0.601,0.602,0.603,0.603,0.603,0.603,0.603,0.603,0.604,0.604,0.604,0.604,0.604,0.604,0.604,0.604,0.604,0.604,0.604,0.604,0.604,0.604,0.604,0.604,0.604,0.604,0.604,0.604,0.604,0.604,0.604,0.604,0.604,0.604,0.605,0.605,0.605,0.605,0.605,0.606,0.606,0.606,0.606,0.606,0.606,0.606,0.607,0.607,0.607,0.607,0.607,0.607,0.607,0.607,0.607,0.608,0.608,0.608,0.608,0.608,0.609,0.609,0.609,0.609,0.609,0.609,0.609,0.609,0.609,0.609,0.609,0.609,0.609,0.609,0.609,0.609,0.609,0.609,0.609,0.609,0.609,0.609,0.609,0.609,0.61,0.61,0.61,0.61,0.611,0.611,0.611,0.611,0.611,0.612,0.612,0.612,0.612,0.612,0.612,0.613,0.613,0.613,0.613,0.613,0.613,0.613,0.614,0.614,0.614,0.613,0.613,0.613,0.613,0.612,0.612,0.612,0.612,0.611,0.611,0.611,0.61,0.61,0.609,0.608,0.606,0.605,0.604,0.602,0.6,0.599,0.596,0.594,0.589,0.583,0,0.567,0,0.551,0.546,0.541,0.539,0.538,0.536,0.536,0.536,0.536,0.535,0.535,0.536,0.537,0.538,0.538,0.537,0.54,0.546,0,0,0.611,0.612,0.612,0.613,0.614,0.614,0.614,0.615,0.615,0.615,0.615,0.615,0.615,0.615,0.615,0.615,0.615,0.615,0.614,0.614,0.614,0.615,0.615,0.615,0.615,0.616,0.616,0.616,0.617,0.617,0.618,0.618,0.619,0.619,0.619,0.62,0.62,0.62,0.62,0.621,0.621,0.621,0.621,0.622,0.622,0.623,0.623,0.623,0.623,0.623,0.623,0.623,0.623,0.623,0.623,0.623,0.623,0.623,0.623,0.623,0.623,0.623,0.623,0.623,0.623,0.623,0.623,0.623,0.623,0.623,0.623,0.622,0.622,0.622,0.622,0.622,0.623,0.623,0.623,0.623,0.623,0.624,0.624,0.624,0.624,0.624,0.625,0.625,0.625,0.625,0.626,0.626,0.626,0.626,0.626,0.626,0.627,0.627,0.627,0.627,0.627,0.627,0.627,0.628,0.628,0.628,0.628,0.628,0.628,0.627,0.627,0.627
0.577,0.577,0.577,0.577,0.577,0.577,0.577,0.576,0.576,0.576,0.576,0.576,0.576,0.576,0.576,0.576,0.576,0.577,0.577,0.577,0.577,0.577,0.577,0.577,0.577,0.577,0.576,0.575,0.574,0.573,0.572,0.571,0.57,0.569,0.568,0.568,0.567,0.567,0.567,0.566,0.566,0.565,0.565,0.565,0.564,0.564,0.563,0.563,0.563,0.563,0.563,0.563,0.563,0.563,0.563,0.564,0.564,0.564,0.565,0.565,0.565,0.566,0.566,0.567,0.566,0.567,0.567,0.567,0.567,0.567,0.567,0.567,0.567,0.568,0.568,0.568,0.568,0.569,0.569,0.569,0.569,0.57,0.57,0.57,0.571,0.571,0.571,0.572,0.572,0.572,0.572,0.572,0.572,0.572,0.573,0.572,0.572,0.572,0.572,0.572,0.572,0.573,0.572,0.572,0.572,0.572,0.572,0.572,0.572,0.572,0.573,0.573,0.573,0.573,0.573,0.573,0.574,0.574,0.574,0.574,0.574,0.574,0.574,0.574,0.574,0.574,0.574,0.573,0.574,0.574,0.574,0.574,0.574,0.574,0.574,0.574,0.574,0.574,0.574,0.574,0.575,0.575,0.575,0.576,0.576,0.576,0.576,0.577,0.577,0.577,0.577,0.577,0.577,0.577,0.576,0.576,0.576,0.576,0.576,0.576,0.576,0.576,0.576,0.577,0.577,0.577,0.578,0.578,0.578,0.579,0.579,0.579,0.58,0.58,0.58,0.58,0.58,0.58,0.58,0.58,0.58,0.58,0.58,0.58,0.58,0.58,0.58,0.58,0.58,0.581,0.581,0.581,0.581,0.581,0.581,0.581,0.582,0.582,0.583,0.583,0.583,0.583,0.584,0.584,0.584,0.584,0.585,0.585,0.585,0.586,0.586,0.587,0.588,0.589,0.589,0.59,0.591,0.591,0.592,0.592,0.592,0.592,0.592,0.592,0.592,0.591,0.591,0.59,0.59,0.589,0.589,0.589,0.589,0.588,0.589,0.589,0.589,0.589,0.59,0.591,0.591,0.592,0.594,0.595,0.596,0.597,0.598,0.599,0.599,0.6,0.6,0.601,0.601,0.601,0.601,0.601,0.601,0.601,0.601,0.602,0.602,0.602,0.602,0.602,0.602,0.602,0.601,0.601,0.601,0.601,0.601,0.601,0.601,0.601,0.601,0.601,0.601,0.602,0.602,0.602,0.603,0.603,0.603,0.603,0.603,0.604,0.604,0.604,0.604,0.604,0.604,0.604,0.604,0.605,0.605,0.605,0.605,0.605,0.605,0.605,0.605,0.605,0.606,0.606,0.606,0.606,0.606,0.606,0.606,0.606,0.606,0.606,0.606,0.606,0.607,0.607,0.607,0.607,0.607,0.607,0.606,0.606,0.606,0.606,0.606,0.606,0.606,0.606,0.606,0.606,0.606,0.607,0.607,0.607,0.607,0.608,0.608,0.609,0.609,0.609,0.609,0.61,0.61,0.61,0.61,0.61,0.61,0.61,0.611,0.611,0.611,0.611,0.611,0.611,0.611,0.611,0.611,0.611,0.611,0.611,0.611,0.611,0.61,0.61,0.61,0.61,0.61,0.609,0.609,0.607,0.607,0.606,0.605,0.604,0.603,0.601,0.6,0.598,0.594,0.591,0.586,0,0,0,0,0.55,0.544,0.54,0.538,0.537,0.536,0.536,0.536,0.536,0.535,0.535,0.536,0.539,0.537,0.538,0.54,0,0,0,0,0.61,0.611,0.611,0.612,0.613,0.613,0.614,0.614,0.614,0.614,0.614,0.614,0.613,0.613,0.613,0.612,0.612,0.612,0.612,0.612,0.612,0.613,0.613,0.614,0.614,0.614,0.614,0.615,0.615,0.615,0.616,0.616,0.616,0.617,0.617,0.617,0.617,0.618,0.618,0.619,0.619,0.619,0.62,0.62,0.62,0.62,0.62,0.62,0.62,0.62,0.62,0.62,0.62,0.62,0.62,0.62,0.62,0.62,0.62,0.62,0.62,0.62,0.621,0.621,0.621,0.621,0.621,0.62,0.62,0.62,0.62,0.62,0.62,0.62,0.62,0.62,0.62,0.62,0.62,0.621,0.621,0.621,0.621,0.622,0.622,0.622,0.623,0.623,0.623,0.624,0.624,0.624,0.624,0.624,0.624,0.624,0.624,0.624,0.624,0.624,0.625,0.625,0.625,0.625,0.625,0.625,0.625,0.625,0.625,0.625,0.625,0.624
0.575,0.575,0.575,0.575,0.575,0.575,0.574,0.574,0.574,0.574,0.574,0.574,0.574,0.574,0.574,0.574,0.575,0.575,0.575,0.575,0.575,0.575,0.575,0.575,0.576,0.575,0.575,0.574,0.573,0.573,0.572,0.571,0.57,0.569,0.569,0.568,0.567,0.567,0.566,0.566,0.566,0.565,0.565,0.565,0.564,0.564,0.564,0.563,0.563,0.563,0.563,0.563,0.563,0.563,0.563,0.564,0.564,0.564,0.565,0.565,0.566,0.566,0.567,0.567,0.567,0.567,0.567,0.567,0.567,0.568,0.568,0.568,0.568,0.568,0.568,0.568,0.568,0.569,0.569,0.569,0.569,0.569,0.57,0.57,0.57,0.571,0.571,0.571,0.571,0.572,0.572,0.572,0.572,0.572,0.573,0.573,0.573,0.573,0.573,0.573,0.573,0.573,0.573,0.573,0.573,0.572,0.572,0.572,0.572,0.572,0.573,0.573,0.573,0.573,0.573,0.573,0.573,0.573,0.574,0.574,0.574,0.574,0.574,0.574,0.574,0.574,0.574,0.574,0.574,0.574,0.574,0.574,0.574,0.574,0.574,0.574,0.574,0.574,0.574,0.574,0.575,0.575,0.575,0.575,0.576,0.576,0.576,0.577,0.577,0.577,0.577,0.577,0.577,0.577,0.577,0.577,0.577,0.576,0.576,0.576,0.576,0.576,0.576,0.577,0.577,0.577,0.578,0.578,0.578,0.579,0.579,0.579,0.579,0.58,0.58,0.58,0.58,0.58,0.58,0.58,0.58,0.58,0.58,0.58,0.58,0.58,0.58,0.58,0.58,0.581,0.581,0.581,0.581,0.581,0.581,0.582,0.582,0.582,0.583,0.583,0.583,0.584,0.584,0.584,0.585,0.585,0.585,0.585,0.585,0.586,0.586,0.587,0.587,0.588,0.588,0.589,0.589,0.59,0.59,0.59,0.59,0.59,0.59,0.59,0.589,0.589,0.589,0.588,0.588,0.587,0.586,0.586,0.586,0.586,0.586,0.586,0.587,0.587,0.588,0.588,0.589,0.59,0.591,0.592,0.594,0.595,0.596,0.597,0.598,0.598,0.599,0.599,0.599,0.599,0.599,0.599,0.599,0.599,0.599,0.6,0.6,0.6,0.6,0.6,0.6,0.6,0.6,0.599,0.599,0.599,0.599,0.599,0.599,0.599,0.599,0.599,0.6,0.6,0.6,0.6,0.6,0.6,0.601,0.601,0.601,0.601,0.601,0.601,0.602,0.602,0.602,0.602,0.603,0.603,0.603,0.603,0.603,0.603,0.603,0.603,0.604,0.604,0.604,0.604,0.604,0.604,0.604,0.604,0.604,0.605,0.605,0.605,0.604,0.604,0.605,0.605,0.605,0.605,0.604,0.604,0.604,0.604,0.604,0.604,0.604,0.604,0.604,0.604,0.604,0.604,0.604,0.605,0.605,0.605,0.605,0.605,0.606,0.606,0.606,0.606,0.607,0.607,0.607,0.607,0.607,0.608,0.608,0.608,0.608,0.609,0.609,0.609,0.609,0.609,0.609,0.609,0.609,0.609,0.609,0.609,0.609,0.609,0.609,0.608,0.608,0.608,0.607,0.607,0.606,0.606,0.605,0.605,0.604,0.603,0.601,0.6,0.599,0.596,0.593,0.589,0,0,0.569,0,0.552,0.547,0.542,0.539,0.537,0.537,0.536,0.536,0.535,0.535,0.535,0.535,0.537,0.538,0.539,0.539,0.546,0,0,0,0,0.608,0.61,0.61,0.611,0.611,0.612,0.612,0.612,0.612,0.612,0.612,0.612,0.612,0.611,0.611,0.611,0.611,0.611,0.611,0.611,0.611,0.611,0.611,0.611,0.611,0.612,0.612,0.612,0.613,0.613,0.614,0.614,0.614,0.615,0.615,0.615,0.615,0.616,0.616,0.616,0.617,0.617,0.617,0.618,0.618,0.618,0.618,0.618,0.619,0.619,0.619,0.618,0.618,0.618,0.618,0.618,0.618,0.618,0.618,0.618,0.618,0.619,0.619,0.619,0.619,0.619,0.619,0.619,0.619,0.618,0.618,0.618,0.618,0.618,0.617,0.618,0.618,0.618,0.618,0.619,0.619,0.619,0.619,0.619,0.62,0.62,0.62,0.621,0.621,0.621,0.621,0.621,0.621,0.622,0.622,0.622,0.622,0.622,0.622,0.622,0.623,0.623,0.623,0.622,0.623,0.623,0.623,0.623,0.622,0.622,0.621,0.621
0.573,0.573,0.573,0.573,0.573,0.572,0.572,0.572,0.572,0.572,0.572,0.572,0.572,0.572,0.572,0.573,0.573,0.573,0.573,0.573,0.573,0.574,0.574,0.574,0.574,0.574,0.573,0.573,0.572,0.572,0.571,0.57,0.569,0.569,0.569,0.568,0.568,0.567,0.567,0.566,0.566,0.566,0.565,0.565,0.565,0.564,0.564,0.563,0.563,0.563,0.563,0.563,0.563,0.563,0.564,0.564,0.564,0.565,0.565,0.566,0.566,0.567,0.567,0.567,0.567,0.567,0.567,0.567,0.568,0.568,0.568,0.568,0.568,0.568,0.568,0.569,0.569,0.569,0.569,0.569,0.569,0.569,0.57,0.57,0.57,0.57,0.571,0.571,0.571,0.571,0.572,0.572,0.572,0.572,0.572,0.572,0.572,0.572,0.572,0.572,0.572,0.573,0.572,0.572,0.572,0.572,0.572,0.572,0.572,0.572,0.572,0.573,0.573,0.573,0.573,0.573,0.573,0.573,0.573,0.573,0.573,0.573,0.573,0.573,0.573,0.573,0.573,0.573,0.573,0.573,0.573,0.573,0.574,0.574,0.574,0.574,0.574,0.574,0.574,0.574,0.574,0.575,0.575,0.575,0.576,0.576,0.576,0.577,0.577,0.577,0.577,0.577,0.577,0.577,0.577,0.577,0.577,0.577,0.576,0.576,0.576,0.576,0.576,0.577,0.577,0.577,0.577,0.578,0.578,0.578,0.578,0.579,0.579,0.579,0.579,0.579,0.579,0.579,0.58,0.579,0.58,0.579,0.58,0.58,0.58,0.58,0.58,0.58,0.58,0.58,0.581,0.581,0.581,0.581,0.581,0.581,0.582,0.582,0.583,0.583,0.583,0.584,0.584,0.584,0.585,0.585,0.585,0.585,0.585,0.585,0.586,0.586,0.586,0.587,0.587,0.587,0.588,0.588,0.588,0.589,0.589,0.588,0.588,0.588,0.587,0.587,0.586,0.586,0.585,0.584,0.584,0.584,0.583,0.583,0.584,0.584,0.584,0.585,0.585,0.585,0.587,0.588,0.589,0.59,0.591,0.592,0.594,0.595,0.596,0.596,0.597,0.597,0.597,0.597,0.597,0.597,0.597,0.597,0.597,0.598,0.598,0.598,0.598,0.598,0.598,0.598,0.598,0.598,0.598,0.597,0.597,0.597,0.597,0.597,0.598,0.598,0.598,0.598,0.598,0.598,0.598,0.598,0.599,0.599,0.599,0.599,0.599,0.6,0.6,0.6,0.6,0.6,0.6,0.6,0.601,0.601,0.601,0.601,0.601,0.601,0.601,0.602,0.602,0.603,0.603,0.603,0.603,0.603,0.603,0.603,0.603,0.603,0.603,0.603,0.603,0.603,0.603,0.603,0.602,0.602,0.602,0.601,0.601,0.601,0.601,0.601,0.601,0.601,0.601,0.601,0.602,0.602,0.603,0.603,0.603,0.603,0.604,0.604,0.604,0.604,0.604,0.605,0.605,0.605,0.605,0.605,0.605,0.605,0.606,0.606,0.606,0.606,0.606,0.606,0.606,0.606,0.606,0.607,0.607,0.607,0.606,0.606,0.606,0.606,0.606,0.606,0.605,0.605,0.605,0.604,0.604,0.603,0.602,0.601,0.6,0.599,0.598,0.595,0.591,0.588,0,0.574,0.566,0,0.55,0.545,0.541,0.538,0.536,0.536,0.536,0.536,0.535,0.535,0.535,0.534,0.538,0.534,0,0.546,0.561,0.575,0,0.6,0.605,0.606,0.607,0.609,0.609,0.61,0.61,0.61,0.61,0.61,0.61,0.61,0.61,0.61,0.609,0.609,0.609,0.609,0.609,0.609,0.609,0.609,0.609,0.609,0.609,0.61,0.61,0.61,0.61,0.611,0.611,0.611,0.611,0.612,0.612,0.612,0.612,0.613,0.614,0.614,0.614,0.615,0.615,0.615,0.616,0.616,0.616,0.616,0.616,0.616,0.616,0.616,0.616,0.616,0.616,0.616,0.616,0.616,0.616,0.616,0.616,0.616,0.616,0.616,0.617,0.617,0.617,0.617,0.616,0.616,0.616,0.616,0.616,0.616,0.616,0.615,0.615,0.615,0.616,0.616,0.616,0.616,0.616,0.617,0.617,0.617,0.617,0.618,0.619,0.619,0.619,0.619,0.619,0.62,0.62,0.62,0.62,0.62,0.62,0.62,0.62,0.62,0.62,0.62,0.62,0.62,0.62,0.62,0.62,0.619,0.619,0.619,0.619
0.571,0.571,0.571,0.571,0.571,0.57,0.57,0.57,0.57,0.57,0.57,0.57,0.57,0.57,0.57,0.571,0.571,0.571,0.571,0.571,0.572,0.572,0.572,0.572,0.572,0.572,0.572,0.572,0.571,0.571,0.57,0.569,0.569,0.569,0.568,0.568,0.567,0.567,0.566,0.566,0.566,0.566,0.565,0.564,0.564,0.564,0.563,0.563,0.563,0.563,0.563,0.563,0.563,0.563,0.563,0.564,0.564,0.565,0.565,0.565,0.566,0.566,0.567,0.567,0.567,0.567,0.567,0.567,0.568,0.568,0.568,0.568,0.568,0.569,0.569,0.569,0.569,0.569,0.569,0.569,0.569,0.569,0.569,0.569,0.57,0.57,0.57,0.57,0.571,0.571,0.571,0.571,0.571,0.571,0.572,0.572,0.572,0.572,0.572,0.572,0.572,0.572,0.572,0.572,0.572,0.572,0.572,0.572,0.572,0.572,0.572,0.572,0.572,0.573,0.573,0.573,0.573,0.573,0.573,0.573,0.573,0.573,0.573,0.573,0.573,0.573,0.573,0.572,0.573,0.573,0.573,0.573,0.573,0.573,0.573,0.573,0.573,0.573,0.573,0.574,0.574,0.574,0.575,0.575,0.576,0.576,0.576,0.577,0.577,0.577,0.577,0.577,0.577,0.577,0.577,0.577,0.577,0.577,0.577,0.576,0.576,0.576,0.576,0.577,0.577,0.577,0.577,0.577,0.578,0.578,0.578,0.578,0.578,0.579,0.579,0.579,0.579,0.579,0.579,0.579,0.579,0.579,0.579,0.579,0.58,0.58,0.58,0.58,0.58,0.58,0.58,0.581,0.581,0.581,0.581,0.581,0.582,0.582,0.582,0.583,0.583,0.584,0.584,0.584,0.584,0.584,0.585,0.585,0.585,0.585,0.585,0.585,0.586,0.586,0.586,0.586,0.586,0.587,0.587,0.587,0.587,0.586,0.586,0.585,0.585,0.585,0.584,0.583,0.583,0.582,0.581,0.581,0.581,0.581,0.581,0.582,0.582,0.583,0.583,0.583,0.584,0.585,0.586,0.588,0.589,0.59,0.591,0.593,0.594,0.594,0.595,0.595,0.595,0.595,0.595,0.595,0.595,0.595,0.595,0.595,0.596,0.596,0.596,0.596,0.596,0.596,0.596,0.596,0.596,0.596,0.595,0.596,0.596,0.596,0.596,0.596,0.596,0.596,0.596,0.596,0.596,0.597,0.597,0.597,0.597,0.597,0.597,0.598,0.598,0.598,0.598,0.598,0.598,0.598,0.599,0.599,0.599,0.599,0.599,0.6,0.6,0.6,0.6,0.6,0.6,0.601,0.601,0.601,0.601,0.601,0.601,0.601,0.6,0.6,0.6,0.6,0.6,0.6,0.6,0.6,0.599,0.599,0.599,0.599,0.599,0.599,0.599,0.599,0.599,0.599,0.599,0.6,0.6,0.6,0.6,0.601,0.601,0.601,0.601,0.602,0.602,0.603,0.603,0.603,0.603,0.603,0.603,0.603,0.603,0.604,0.604,0.604,0.604,0.604,0.604,0.604,0.604,0.604,0.604,0.604,0.604,0.604,0.604,0.604,0.604,0.604,0.604,0.603,0.603,0.603,0.602,0.601,0.6,0.599,0.599,0.598,0.597,0.594,0.59,0.587,0.581,0.573,0.565,0,0.549,0.544,0.54,0.537,0.536,0.536,0.535,0.535,0.534,0.534,0.534,0.535,0.54,0.536,0,0,0.57,0.587,0.598,0.601,0.603,0.604,0.606,0.606,0.607,0.607,0.608,0.608,0.608,0.608,0.608,0.608,0.607,0.607,0.607,0.607,0.607,0.606,0.606,0.606,0.607,0.607,0.607,0.607,0.607,0.607,0.608,0.608,0.608,0.609,0.609,0.609,0.609,0.61,0.61,0.61,0.61,0.611,0.611,0.611,0.612,0.612,0.612,0.613,0.613,0.614,0.614,0.614,0.614,0.614,0.614,0.614,0.614,0.614,0.614,0.614,0.614,0.614,0.614,0.614,0.614,0.614,0.614,0.614,0.615,0.615,0.615,0.615,0.615,0.615,0.614,0.614,0.614,0.614,0.614,0.614,0.614,0.614,0.614,0.614,0.614,0.614,0.614,0.615,0.615,0.615,0.615,0.616,0.616,0.616,0.617,0.617,0.617,0.617,0.617,0.617,0.618,0.618,0.618,0.618,0.618,0.618,0.618,0.617,0.617,0.617,0.617,0.617,0.617,0.616,0.616,0.616,0.616
0.569,0.569,0.569,0.569,0.569,0.569,0.569,0.568,0.568,0.568,0.568,0.568,0.569,0.569,0.569,0.569,0.569,0.569,0.57,0.57,0.57,0.57,0.57,0.57,0.571,0.571,0.571,0.57,0.57,0.57,0.569,0.569,0.568,0.568,0.568,0.567,0.567,0.566,0.566,0.566,0.565,0.565,0.565,0.564,0.564,0.563,0.563,0.563,0.563,0.563,0.562,0.563,0.563,0.563,0.563,0.564,0.564,0.564,0.565,0.565,0.566,0.566,0.566,0.567,0.567,0.567,0.567,0.567,0.567,0.568,0.568,0.568,0.568,0.568,0.568,0.568,0.568,0.568,0.568,0.568,0.568,0.569,0.569,0.569,0.569,0.569,0.569,0.57,0.57,0.57,0.57,0.57,0.57,0.571,0.571,0.571,0.571,0.571,0.571,0.571,0.571,0.571,0.571,0.571,0.571,0.571,0.571,0.571,0.572,0.572,0.572,0.572,0.572,0.572,0.573,0.573,0.573,0.573,0.573,0.572,0.572,0.572,0.572,0.572,0.572,0.572,0.572,0.572,0.572,0.572,0.572,0.572,0.573,0.573,0.573,0.573,0.573,0.573,0.573,0.573,0.574,0.574,0.574,0.575,0.575,0.575,0.576,0.576,0.577,0.577,0.577,0.577,0.577,0.577,0.577,0.577,0.577,0.577,0.576,0.577,0.576,0.576,0.576,0.576,0.577,0.577,0.577,0.577,0.577,0.577,0.578,0.577,0.578,0.578,0.578,0.578,0.578,0.578,0.578,0.578,0.578,0.579,0.579,0.579,0.579,0.579,0.579,0.579,0.58,0.58,0.58,0.58,0.58,0.58,0.581,0.581,0.581,0.582,0.582,0.582,0.583,0.583,0.583,0.583,0.584,0.584,0.584,0.584,0.584,0.584,0.584,0.584,0.585,0.585,0.585,0.585,0.585,0.585,0.585,0.585,0.585,0.585,0.584,0.583,0.583,0.582,0.581,0.581,0.58,0.58,0.579,0.579,0.579,0.579,0.579,0.58,0.58,0.58,0.58,0.581,0.582,0.583,0.584,0.585,0.587,0.588,0.589,0.591,0.591,0.592,0.592,0.592,0.593,0.593,0.593,0.593,0.593,0.593,0.593,0.593,0.594,0.594,0.594,0.594,0.594,0.594,0.594,0.594,0.594,0.594,0.594,0.594,0.594,0.594,0.594,0.594,0.594,0.594,0.594,0.594,0.595,0.595,0.595,0.595,0.595,0.595,0.595,0.595,0.596,0.596,0.596,0.596,0.596,0.596,0.597,0.597,0.597,0.597,0.598,0.598,0.598,0.598,0.599,0.599,0.599,0.599,0.599,0.599,0.599,0.599,0.599,0.599,0.598,0.598,0.598,0.598,0.598,0.598,0.597,0.597,0.597,0.597,0.597,0.597,0.597,0.597,0.597,0.597,0.597,0.597,0.597,0.598,0.598,0.598,0.598,0.599,0.599,0.599,0.599,0.6,0.6,0.6,0.6,0.6,0.6,0.6,0.601,0.601,0.601,0.601,0.601,0.601,0.602,0.602,0.602,0.602,0.602,0.603,0.603,0.603,0.603,0.602,0.602,0.602,0.602,0.602,0.601,0.601,0.601,0.6,0.6,0.599,0.599,0.598,0.597,0.597,0.596,0.593,0.589,0.587,0,0.573,0.564,0.556,0.548,0.544,0.539,0.537,0.536,0.535,0.535,0.535,0.535,0.534,0.534,0.535,0.542,0,0,0,0.579,0.596,0.597,0.6,0.601,0.603,0.603,0.605,0.605,0.606,0.606,0.606,0.605,0.605,0.605,0.605,0.605,0.605,0.605,0.605,0.604,0.604,0.604,0.604,0.605,0.605,0.605,0.605,0.605,0.605,0.606,0.606,0.606,0.606,0.607,0.607,0.607,0.607,0.607,0.607,0.608,0.609,0.609,0.609,0.61,0.61,0.61,0.611,0.611,0.611,0.611,0.611,0.612,0.612,0.611,0.611,0.612,0.612,0.612,0.612,0.611,0.611,0.612,0.612,0.612,0.612,0.612,0.612,0.612,0.612,0.612,0.612,0.612,0.612,0.612,0.612,0.612,0.611,0.611,0.611,0.611,0.611,0.611,0.611,0.611,0.612,0.612,0.612,0.612,0.613,0.613,0.614,0.614,0.614,0.615,0.615,0.615,0.615,0.615,0.616,0.616,0.616,0.616,0.616,0.616,0.615,0.615,0.615,0.615,0.614,0.614,0.614,0.614,0.614,0.613,0.613,0.613
0.568,0.568,0.568,0.567,0.567,0.567,0.567,0.566,0.566,0.566,0.566,0.567,0.567,0.567,0.567,0.567,0.568,0.568,0.568,0.568,0.569,0.569,0.569,0.569,0.569,0.569,0.569,0.569,0.569,0.569,0.568,0.568,0.567,0.567,0.567,0.566,0.566,0.566,0.565,0.565,0.565,0.564,0.564,0.564,0.563,0.563,0.563,0.562,0.562,0.562,0.562,0.562,0.562,0.562,0.563,0.563,0.564,0.564,0.564,0.565,0.565,0.566,0.566,0.566,0.566,0.566,0.566,0.567,0.567,0.567,0.567,0.567,0.568,0.568,0.568,0.568,0.568,0.568,0.568,0.568,0.568,0.568,0.568,0.568,0.568,0.569,0.569,0.569,0.569,0.569,0.569,0.569,0.569,0.57,0.57,0.57,0.57,0.57,0.57,0.57,0.57,0.571,0.57,0.57,0.571,0.571,0.571,0.571,0.571,0.571,0.572,0.572,0.572,0.572,0.572,0.572,0.572,0.572,0.572,0.572,0.572,0.572,0.572,0.571,0.572,0.572,0.572,0.571,0.572,0.572,0.572,0.572,0.572,0.572,0.572,0.572,0.572,0.572,0.572,0.572,0.573,0.573,0.573,0.574,0.574,0.574,0.575,0.575,0.575,0.576,0.576,0.576,0.576,0.576,0.576,0.576,0.576,0.576,0.576,0.576,0.576,0.576,0.576,0.576,0.576,0.576,0.577,0.576,0.576,0.577,0.577,0.577,0.577,0.577,0.577,0.578,0.578,0.578,0.578,0.578,0.578,0.578,0.578,0.578,0.578,0.578,0.578,0.579,0.579,0.579,0.579,0.58,0.58,0.58,0.58,0.581,0.581,0.581,0.581,0.582,0.582,0.582,0.582,0.582,0.583,0.583,0.583,0.583,0.583,0.583,0.583,0.583,0.583,0.584,0.583,0.583,0.583,0.584,0.584,0.583,0.583,0.583,0.582,0.581,0.581,0.58,0.579,0.578,0.578,0.577,0.577,0.577,0.577,0.577,0.577,0.577,0.578,0.578,0.578,0.578,0.579,0.58,0.582,0.583,0.584,0.586,0.587,0.588,0.589,0.59,0.59,0.59,0.591,0.591,0.591,0.591,0.591,0.591,0.591,0.591,0.591,0.591,0.591,0.591,0.591,0.591,0.591,0.591,0.591,0.591,0.591,0.591,0.591,0.591,0.591,0.591,0.591,0.592,0.592,0.592,0.592,0.592,0.592,0.592,0.593,0.593,0.593,0.593,0.593,0.594,0.594,0.594,0.594,0.595,0.595,0.595,0.595,0.596,0.596,0.596,0.596,0.596,0.597,0.597,0.597,0.597,0.597,0.597,0.597,0.597,0.597,0.597,0.596,0.596,0.596,0.596,0.595,0.595,0.595,0.595,0.595,0.594,0.594,0.594,0.594,0.594,0.594,0.594,0.595,0.595,0.595,0.596,0.596,0.596,0.596,0.597,0.597,0.597,0.597,0.598,0.598,0.598,0.598,0.598,0.598,0.598,0.598,0.599,0.599,0.599,0.599,0.599,0.599,0.6,0.6,0.6,0.6,0.6,0.6,0.6,0.6,0.6,0.6,0.6,0.6,0.6,0.6,0.599,0.599,0.599,0.599,0.598,0.597,0.597,0.596,0.596,0.594,0.592,0.588,0.585,0,0.572,0.564,0.556,0.549,0.545,0.54,0.537,0.536,0.535,0.535,0.534,0.534,0.534,0.534,0.536,0.543,0,0,0,0.584,0.595,0.598,0.599,0.599,0.601,0.601,0.602,0.603,0.604,0.603,0.603,0.603,0.603,0.603,0.603,0.603,0.603,0.603,0.602,0.602,0.602,0.602,0.602,0.603,0.603,0.603,0.603,0.603,0.604,0.604,0.604,0.604,0.605,0.605,0.605,0.605,0.605,0.605,0.606,0.606,0.606,0.606,0.607,0.607,0.607,0.607,0.608,0.608,0.609,0.609,0.609,0.609,0.609,0.609,0.609,0.609,0.609,0.609,0.609,0.609,0.609,0.61,0.61,0.61,0.61,0.61,0.61,0.61,0.61,0.61,0.61,0.61,0.61,0.61,0.61,0.61,0.61,0.61,0.61,0.609,0.609,0.609,0.609,0.609,0.61,0.61,0.61,0.61,0.61,0.611,0.611,0.611,0.612,0.612,0.612,0.613,0.613,0.614,0.614,0.613,0.613,0.614,0.614,0.613,0.613,0.612,0.612,0.612,0.612,0.611,0.611,0.611,0.611,0.611,0.611,0.61
0.566,0.566,0.566,0.565,0.565,0.565,0.565,0.565,0.565,0.565,0.565,0.565,0.565,0.565,0.565,0.566,0.566,0.566,0.566,0.567,0.567,0.567,0.568,0.568,0.568,0.568,0.568,0.568,0.568,0.567,0.567,0.567,0.566,0.566,0.566,0.565,0.565,0.565,0.564,0.564,0.564,0.564,0.563,0.563,0.563,0.562,0.562,0.562,0.562,0.562,0.562,0.562,0.562,0.562,0.562,0.563,0.563,0.563,0.564,0.564,0.565,0.565,0.565,0.565,0.566,0.566,0.566,0.566,0.566,0.567,0.567,0.567,0.567,0.567,0.567,0.567,0.567,0.567,0.567,0.567,0.567,0.567,0.567,0.568,0.568,0.568,0.568,0.568,0.568,0.568,0.569,0.569,0.569,0.569,0.569,0.569,0.569,0.569,0.569,0.569,0.569,0.57,0.57,0.57,0.57,0.57,0.57,0.57,0.57,0.571,0.571,0.571,0.571,0.571,0.572,0.572,0.572,0.572,0.571,0.571,0.571,0.571,0.571,0.571,0.571,0.571,0.571,0.571,0.571,0.571,0.571,0.571,0.571,0.571,0.571,0.571,0.571,0.571,0.571,0.572,0.572,0.572,0.572,0.573,0.573,0.573,0.573,0.574,0.574,0.574,0.575,0.575,0.575,0.575,0.575,0.575,0.575,0.575,0.575,0.575,0.575,0.575,0.575,0.575,0.575,0.575,0.575,0.575,0.575,0.576,0.576,0.576,0.576,0.576,0.576,0.576,0.576,0.576,0.576,0.576,0.576,0.576,0.577,0.577,0.577,0.577,0.577,0.578,0.578,0.578,0.579,0.579,0.579,0.579,0.579,0.58,0.58,0.58,0.581,0.581,0.581,0.581,0.581,0.581,0.581,0.581,0.582,0.582,0.582,0.582,0.582,0.582,0.582,0.582,0.582,0.582,0.582,0.582,0.582,0.582,0.582,0.581,0.58,0.58,0.579,0.578,0.577,0.577,0.576,0.575,0.575,0.575,0.575,0.575,0.575,0.575,0.575,0.576,0.576,0.576,0.577,0.578,0.579,0.58,0.582,0.583,0.584,0.586,0.587,0.588,0.588,0.588,0.589,0.589,0.589,0.589,0.589,0.589,0.589,0.589,0.589,0.589,0.589,0.589,0.589,0.589,0.589,0.589,0.589,0.589,0.589,0.589,0.589,0.589,0.589,0.589,0.59,0.59,0.59,0.59,0.59,0.59,0.59,0.59,0.591,0.591,0.591,0.591,0.591,0.591,0.591,0.592,0.592,0.592,0.592,0.593,0.593,0.594,0.594,0.594,0.595,0.595,0.595,0.595,0.595,0.595,0.595,0.595,0.595,0.595,0.595,0.595,0.594,0.594,0.594,0.594,0.593,0.592,0.592,0.592,0.592,0.592,0.592,0.591,0.592,0.592,0.592,0.592,0.592,0.592,0.593,0.594,0.594,0.594,0.594,0.595,0.595,0.595,0.595,0.596,0.596,0.596,0.596,0.596,0.596,0.596,0.596,0.596,0.596,0.596,0.597,0.597,0.597,0.597,0.598,0.598,0.598,0.598,0.598,0.598,0.598,0.598,0.599,0.599,0.599,0.598,0.598,0.598,0.598,0.597,0.597,0.597,0.596,0.595,0.595,0.594,0.593,0.59,0.587,0.584,0.578,0.572,0.565,0,0.55,0.545,0.54,0.537,0.536,0.534,0.534,0.534,0.534,0.533,0.534,0.536,0,0,0,0,0.589,0.596,0.597,0.597,0.598,0.599,0.6,0.6,0.601,0.601,0.601,0.601,0.601,0.601,0.601,0.601,0.6,0.6,0.6,0.6,0.6,0.6,0.6,0.6,0.6,0.6,0.601,0.601,0.601,0.601,0.602,0.602,0.603,0.603,0.603,0.603,0.603,0.603,0.604,0.604,0.604,0.604,0.604,0.604,0.605,0.605,0.605,0.605,0.605,0.605,0.606,0.606,0.606,0.606,0.606,0.606,0.606,0.606,0.606,0.606,0.607,0.607,0.607,0.607,0.607,0.607,0.608,0.608,0.608,0.608,0.608,0.608,0.608,0.608,0.608,0.607,0.607,0.607,0.607,0.607,0.607,0.607,0.607,0.607,0.607,0.607,0.607,0.607,0.608,0.608,0.609,0.609,0.609,0.61,0.61,0.61,0.61,0.611,0.611,0.611,0.611,0.611,0.611,0.611,0.61,0.61,0.61,0.61,0.609,0.609,0.609,0.609,0.609,0.609,0.608,0.608,0.608
0.564,0.564,0.564,0.564,0.564,0.563,0.563,0.563,0.563,0.563,0.563,0.563,0.563,0.564,0.564,0.564,0.564,0.564,0.565,0.565,0.565,0.565,0.566,0.566,0.566,0.566,0.566,0.566,0.566,0.566,0.566,0.566,0.565,0.565,0.565,0.564,0.564,0.564,0.563,0.563,0.563,0.562,0.562,0.562,0.562,0.561,0.561,0.561,0.561,0.561,0.561,0.561,0.561,0.562,0.562,0.562,0.562,0.563,0.563,0.563,0.564,0.564,0.564,0.565,0.565,0.565,0.565,0.565,0.565,0.566,0.566,0.566,0.566,0.566,0.566,0.566,0.566,0.566,0.566,0.566,0.566,0.566,0.566,0.566,0.566,0.567,0.567,0.567,0.567,0.567,0.567,0.567,0.568,0.568,0.568,0.568,0.568,0.568,0.569,0.569,0.569,0.569,0.569,0.569,0.569,0.569,0.569,0.57,0.57,0.57,0.57,0.571,0.571,0.571,0.571,0.571,0.571,0.571,0.571,0.571,0.57,0.57,0.57,0.57,0.57,0.57,0.57,0.57,0.57,0.57,0.57,0.57,0.57,0.57,0.57,0.57,0.57,0.57,0.57,0.571,0.571,0.571,0.571,0.572,0.572,0.572,0.572,0.573,0.573,0.573,0.574,0.574,0.574,0.574,0.574,0.574,0.574,0.574,0.574,0.574,0.574,0.574,0.574,0.574,0.574,0.574,0.574,0.574,0.574,0.574,0.574,0.574,0.574,0.574,0.574,0.574,0.575,0.575,0.575,0.575,0.575,0.575,0.575,0.575,0.576,0.576,0.576,0.576,0.577,0.577,0.577,0.578,0.578,0.578,0.579,0.579,0.579,0.579,0.579,0.58,0.58,0.58,0.58,0.58,0.58,0.58,0.58,0.58,0.58,0.58,0.58,0.58,0.58,0.58,0.58,0.58,0.58,0.58,0.58,0.58,0.58,0.579,0.578,0.577,0.576,0.576,0.575,0.574,0.574,0.573,0.573,0.572,0.572,0.572,0.573,0.573,0.573,0.573,0.574,0.573,0.574,0.575,0.576,0.578,0.579,0.58,0.581,0.583,0.584,0.585,0.586,0.586,0.586,0.587,0.587,0.587,0.587,0.587,0.587,0.587,0.587,0.587,0.587,0.587,0.587,0.587,0.587,0.587,0.587,0.587,0.587,0.587,0.587,0.587,0.587,0.587,0.587,0.588,0.588,0.588,0.588,0.588,0.588,0.588,0.588,0.589,0.589,0.589,0.589,0.589,0.589,0.589,0.59,0.59,0.59,0.591,0.591,0.591,0.591,0.592,0.592,0.592,0.592,0.592,0.592,0.593,0.593,0.593,0.592,0.592,0.592,0.592,0.592,0.592,0.591,0.591,0.591,0.59,0.59,0.59,0.59,0.59,0.59,0.589,0.59,0.59,0.59,0.59,0.59,0.59,0.591,0.591,0.591,0.591,0.592,0.592,0.592,0.592,0.593,0.593,0.593,0.594,0.594,0.594,0.594,0.594,0.594,0.594,0.594,0.594,0.595,0.595,0.595,0.596,0.596,0.596,0.596,0.596,0.597,0.597,0.597,0.597,0.597,0.597,0.597,0.597,0.597,0.596,0.596,0.596,0.595,0.595,0.595,0.594,0.593,0.592,0.591,0.589,0.586,0.583,0.577,0.571,0.564,0.557,0,0.545,0.54,0.537,0.535,0.534,0.534,0.534,0.534,0.533,0.533,0.537,0,0,0,0.577,0.589,0.595,0.595,0.596,0.597,0.597,0.598,0.598,0.599,0.599,0.599,0.599,0.599,0.599,0.599,0.598,0.598,0.598,0.598,0.598,0.598,0.598,0.598,0.598,0.598,0.598,0.599,0.599,0.599,0.599,0.6,0.6,0.6,0.6,0.601,0.601,0.601,0.601,0.601,0.601,0.601,0.601,0.602,0.602,0.602,0.602,0.602,0.602,0.603,0.603,0.603,0.603,0.603,0.603,0.604,0.604,0.604,0.604,0.604,0.604,0.604,0.604,0.605,0.605,0.605,0.605,0.605,0.605,0.606,0.606,0.606,0.606,0.606,0.606,0.606,0.606,0.606,0.605,0.605,0.605,0.605,0.605,0.605,0.605,0.605,0.605,0.606,0.606,0.606,0.606,0.606,0.606,0.606,0.607,0.607,0.607,0.608,0.608,0.608,0.608,0.608,0.608,0.608,0.608,0.607,0.607,0.607,0.607,0.607,0.606,0.606,0.606,0.606,0.606,0.606,0.606,0.606
0.562,0.562,0.562,0.562,0.562,0.562,0.562,0.562,0.561,0.561,0.562,0.562,0.562,0.562,0.562,0.562,0.563,0.563,0.563,0.563,0.564,0.564,0.564,0.564,0.565,0.565,0.565,0.565,0.565,0.565,0.565,0.564,0.564,0.564,0.563,0.563,0.563,0.562,0.562,0.562,0.562,0.561,0.561,0.561,0.561,0.561,0.561,0.561,0.561,0.561,0.561,0.561,0.561,0.561,0.561,0.561,0.562,0.562,0.562,0.562,0.562,0.563,0.563,0.563,0.563,0.563,0.564,0.564,0.564,0.564,0.564,0.564,0.564,0.565,0.565,0.565,0.565,0.565,0.565,0.565,0.565,0.565,0.565,0.566,0.566,0.566,0.566,0.566,0.566,0.566,0.566,0.566,0.566,0.567,0.567,0.567,0.567,0.567,0.567,0.567,0.567,0.568,0.568,0.568,0.568,0.568,0.569,0.569,0.569,0.569,0.57,0.57,0.57,0.57,0.57,0.57,0.57,0.57,0.57,0.57,0.569,0.569,0.569,0.569,0.569,0.569,0.569,0.569,0.569,0.569,0.569,0.569,0.569,0.569,0.569,0.569,0.569,0.569,0.569,0.569,0.57,0.57,0.57,0.57,0.57,0.57,0.571,0.571,0.571,0.572,0.572,0.572,0.572,0.572,0.573,0.573,0.573,0.573,0.573,0.573,0.573,0.573,0.573,0.573,0.573,0.573,0.573,0.573,0.573,0.573,0.573,0.573,0.573,0.573,0.573,0.573,0.573,0.573,0.573,0.573,0.573,0.573,0.573,0.574,0.574,0.574,0.575,0.575,0.575,0.576,0.576,0.576,0.577,0.577,0.577,0.578,0.578,0.578,0.578,0.578,0.579,0.579,0.579,0.579,0.579,0.579,0.579,0.579,0.579,0.579,0.579,0.579,0.579,0.579,0.579,0.579,0.579,0.579,0.579,0.578,0.578,0.577,0.577,0.576,0.575,0.574,0.573,0.572,0.572,0.571,0.571,0.57,0.571,0.57,0.571,0.571,0.571,0.571,0.571,0.572,0.572,0.573,0.574,0.575,0.576,0.578,0.579,0.58,0.582,0.583,0.584,0.584,0.584,0.584,0.584,0.585,0.585,0.585,0.585,0.585,0.585,0.585,0.585,0.585,0.585,0.585,0.585,0.585,0.585,0.585,0.585,0.585,0.585,0.585,0.585,0.585,0.585,0.586,0.586,0.586,0.586,0.586,0.586,0.586,0.586,0.586,0.587,0.587,0.587,0.587,0.587,0.587,0.588,0.588,0.588,0.588,0.589,0.589,0.589,0.589,0.589,0.59,0.59,0.59,0.59,0.59,0.59,0.59,0.59,0.59,0.59,0.59,0.59,0.59,0.589,0.589,0.589,0.588,0.588,0.588,0.588,0.588,0.588,0.588,0.588,0.588,0.588,0.588,0.588,0.588,0.589,0.589,0.589,0.59,0.59,0.59,0.59,0.59,0.591,0.591,0.591,0.591,0.591,0.591,0.591,0.591,0.591,0.591,0.591,0.592,0.592,0.592,0.593,0.594,0.594,0.594,0.595,0.595,0.595,0.595,0.595,0.595,0.595,0.595,0.595,0.595,0.595,0.595,0.594,0.594,0.594,0.593,0.592,0.592,0.591,0.591,0.589,0.587,0.585,0.581,0.576,0.57,0,0.556,0.55,0,0.54,0.537,0.535,0.533,0.533,0.533,0.534,0.533,0.533,0.537,0,0,0,0.576,0.587,0.593,0.594,0.594,0.595,0.596,0.596,0.597,0.597,0.597,0.597,0.597,0.597,0.597,0.596,0.596,0.596,0.596,0.596,0.596,0.596,0.596,0.596,0.596,0.596,0.596,0.597,0.597,0.597,0.598,0.598,0.598,0.598,0.599,0.599,0.599,0.599,0.599,0.599,0.599,0.599,0.599,0.599,0.599,0.599,0.599,0.599,0.6,0.6,0.6,0.6,0.6,0.6,0.601,0.601,0.601,0.601,0.601,0.601,0.602,0.602,0.602,0.603,0.603,0.603,0.603,0.603,0.603,0.603,0.603,0.604,0.604,0.604,0.604,0.604,0.604,0.604,0.603,0.603,0.603,0.603,0.603,0.603,0.603,0.604,0.604,0.604,0.604,0.604,0.604,0.604,0.604,0.604,0.604,0.605,0.605,0.605,0.605,0.606,0.606,0.605,0.605,0.605,0.605,0.605,0.605,0.605,0.605,0.604,0.604,0.604,0.604,0.604,0.604,0.604,0.604,0.604
0.561,0.561,0.561,0.561,0.561,0.561,0.56,0.56,0.56,0.56,0.56,0.56,0.561,0.561,0.561,0.561,0.561,0.561,0.561,0.562,0.562,0.562,0.563,0.563,0.563,0.563,0.563,0.564,0.564,0.564,0.563,0.563,0.562,0.562,0.562,0.562,0.562,0.561,0.561,0.561,0.561,0.561,0.561,0.561,0.56,0.56,0.56,0.56,0.56,0.56,0.56,0.56,0.56,0.561,0.561,0.561,0.561,0.561,0.561,0.561,0.561,0.561,0.561,0.561,0.561,0.562,0.562,0.562,0.562,0.562,0.562,0.563,0.563,0.563,0.563,0.563,0.563,0.564,0.564,0.564,0.564,0.564,0.564,0.564,0.564,0.564,0.564,0.565,0.565,0.565,0.565,0.565,0.565,0.565,0.565,0.565,0.565,0.565,0.566,0.566,0.566,0.566,0.566,0.566,0.567,0.567,0.567,0.568,0.568,0.568,0.569,0.569,0.569,0.569,0.569,0.569,0.569,0.569,0.569,0.569,0.568,0.568,0.568,0.568,0.568,0.567,0.567,0.567,0.567,0.567,0.567,0.567,0.567,0.567,0.568,0.568,0.568,0.568,0.568,0.568,0.568,0.568,0.569,0.569,0.569,0.569,0.569,0.569,0.57,0.57,0.57,0.57,0.57,0.571,0.571,0.571,0.571,0.571,0.571,0.571,0.571,0.572,0.572,0.572,0.572,0.572,0.572,0.572,0.572,0.572,0.572,0.572,0.572,0.572,0.572,0.571,0.572,0.572,0.572,0.572,0.572,0.572,0.572,0.572,0.572,0.573,0.573,0.573,0.574,0.574,0.575,0.575,0.575,0.576,0.576,0.576,0.576,0.576,0.576,0.577,0.577,0.577,0.577,0.577,0.577,0.577,0.577,0.577,0.577,0.577,0.577,0.577,0.577,0.577,0.577,0.577,0.577,0.577,0.577,0.577,0.576,0.576,0.575,0.574,0.573,0.572,0.571,0.571,0.57,0.569,0.569,0.569,0.569,0.569,0.569,0.569,0.569,0.569,0.57,0.569,0.57,0.57,0.571,0.572,0.574,0.575,0.576,0.577,0.579,0.58,0.581,0.582,0.582,0.582,0.582,0.582,0.583,0.583,0.583,0.583,0.583,0.583,0.583,0.583,0.583,0.583,0.583,0.583,0.583,0.583,0.583,0.583,0.583,0.583,0.583,0.583,0.583,0.584,0.584,0.584,0.584,0.584,0.584,0.584,0.584,0.584,0.584,0.585,0.585,0.585,0.585,0.585,0.585,0.586,0.586,0.586,0.586,0.586,0.587,0.587,0.587,0.587,0.587,0.588,0.588,0.588,0.588,0.588,0.588,0.588,0.588,0.588,0.588,0.587,0.587,0.587,0.587,0.586,0.586,0.586,0.586,0.586,0.586,0.586,0.586,0.586,0.586,0.586,0.586,0.587,0.587,0.587,0.587,0.588,0.588,0.588,0.588,0.588,0.589,0.589,0.589,0.589,0.589,0.589,0.589,0.589,0.589,0.589,0.589,0.589,0.59,0.59,0.591,0.591,0.592,0.592,0.593,0.593,0.594,0.594,0.594,0.594,0.594,0.594,0.594,0.594,0.593,0.592,0.592,0.592,0.591,0.591,0.591,0.59,0.59,0.589,0.588,0.587,0.584,0.582,0.576,0.57,0.563,0.556,0.549,0,0.539,0.536,0.535,0.533,0.533,0.533,0.533,0.533,0.533,0.537,0,0,0,0.575,0.585,0.591,0.592,0.592,0.593,0.594,0.594,0.595,0.595,0.595,0.595,0.595,0.595,0.594,0.594,0.594,0.594,0.594,0.594,0.594,0.594,0.594,0.594,0.594,0.594,0.594,0.595,0.595,0.596,0.596,0.596,0.596,0.597,0.597,0.597,0.597,0.597,0.597,0.597,0.597,0.597,0.597,0.597,0.597,0.597,0.597,0.597,0.597,0.597,0.597,0.597,0.598,0.598,0.598,0.599,0.599,0.599,0.599,0.599,0.6,0.6,0.6,0.6,0.6,0.601,0.601,0.601,0.601,0.601,0.601,0.601,0.601,0.601,0.601,0.601,0.601,0.601,0.601,0.601,0.601,0.601,0.601,0.601,0.601,0.601,0.601,0.601,0.601,0.601,0.601,0.601,0.601,0.602,0.602,0.603,0.603,0.603,0.603,0.603,0.603,0.603,0.603,0.603,0.603,0.603,0.603,0.603,0.603,0.603,0.602,0.602,0.602,0.602,0.601,0.601,0.601,0.601
