1.406,1.409,1.409,1.409,1.412,1.412,1.412,1.412,1.412,1.412,1.412,1.409,1.409,1.409,1.409,1.406,1.403,1.403,1.403,1.403,1.403,1.403,1.403,1.403,1.406,1.406,1.406,1.409,1.412,1.412,1.415,1.415,1.415,1.418,1.418,1.418,1.418,1.418,1.418,1.418,1.418,1.418,1.418,1.418,1.418,1.418,1.421,1.421,1.421,1.421,1.424,1.424,1.424,1.427,1.427,1.427,1.43,1.43,1.433,1.433,1.436,1.436,1.436,1.436,1.436,1.436,1.436,1.436,1.439,1.439,1.439,1.442,1.442,1.445,1.448,1.448,1.451,1.451,1.454,1.454,1.454,1.451,1.451,1.451,1.451,1.448,1.445,1.445,1.442,1.442,1.439,1.439,1.436,1.436,1.436,1.436,1.433,1.436,1.433,1.433,1.433,1.433,1.433,1.436,1.436,1.436,1.436,1.436,1.436,1.436,1.436,1.436,1.436,1.436,1.436,1.436,1.436,1.433,1.43,1.427,1.424,1.421,1.421,1.421,1.424,1.424,1.43,1.436,1.442,1.448,1.454,1.458,1.464,1.467,1.467,1.467,1.47,1.47,1.467,1.467,1.464,1.464,1.461,1.461,1.461,1.458,1.458,1.458,1.458,1.454,1.454,1.454,1.454,1.454,1.454,1.454,1.451,1.451,1.451,1.448,1.445,1.445,1.442,1.442,1.442,1.439,1.439,1.439,1.439,1.436,1.436,1.436,1.436,1.436,1.439,1.439,1.442,1.442,1.445,1.445,1.448,1.448,1.448,1.451,1.448,1.448,1.448,1.445,1.445,1.442,1.439,1.439,1.436,1.433,1.433,1.43,1.43,1.43,1.43,1.43,1.43,1.433,1.433,1.436,1.436,1.439,1.439,1.439,1.439,1.439,1.439,1.439,1.439,1.442,1.442,1.442,1.442,1.445,1.445,1.445,1.448,1.448,1.448,1.448,1.448,1.448,1.448,1.448,1.448,1.448,1.448,1.448,1.451,1.451,1.451,1.454,1.454,1.454,1.454,1.454,1.454,1.454,1.451,1.451,1.451,1.451,1.448,1.448,1.448,1.448,1.448,1.445,1.445,1.445,1.445,1.442,1.442,1.442,1.442,1.439,1.439,1.436,1.436,1.436,1.433,1.433,1.43,1.43,1.427,1.427,1.427,1.427,1.427,1.427,1.427,1.427,1.427,1.427,1.427,1.43,1.43,1.43,1.43,1.43,1.43,1.427,1.43,1.43,1.43,1.43,1.43,1.43,1.43,1.43,1.43,1.43,1.43,1.43,1.43,1.43,1.433,1.433,1.433,1.433,1.433,1.433,1.433,1.433,1.433,1.433,1.433,1.436,1.436,1.439,1.439,1.442,1.442,1.442,1.445,1.445,1.445,1.442,1.442,1.442,1.442,1.439,1.439,1.436,1.436,1.436,1.436,1.433,1.433,1.433,1.433,1.433,1.433,1.43,1.43,1.427,1.424,1.424,1.421,1.418,1.415,1.415,1.412,1.412,1.412,1.412,1.415,1.415,1.418,1.421,1.421,1.424,1.427,1.43,1.433,1.433,1.436,1.439,1.442,1.442,1.445,1.445,1.445,1.445,1.445,1.445,1.445,1.445,1.442,1.442,1.439,1.439,1.436,1.436,1.433,1.433,1.43,1.43,1.427,1.427,1.424,1.424,1.424,1.421,1.421,1.418,1.418,1.415,1.415,1.415,1.415,1.415,1.415,1.418,1.418,1.418,1.418,1.418,1.418,1.418,1.418,1.421,1.421,1.421,1.421,1.421,1.421,1.421,1.421,1.421,1.421,1.421,1.421,1.424,1.427,1.427,1.427,1.43,1.43,1.43,1.433,1.433,1.433,1.433,1.433,1.433,1.43,1.43,1.43,1.43,1.43,1.427,1.427,1.427,1.427,1.427,1.427,1.427,1.43,1.43,1.43,1.43,1.427,1.427,1.427,1.427,1.424,1.424,1.421,1.418,1.418,1.415,1.415,1.412,1.406,1.4,1.391,1.383,1.374,1.366,1.355,1.344,1.334,1.328,1.323,1.321,1.316,1.31,1.308,1.305,1.3,1.3,1.298,1.293,1.285,1.278,1.269,1.257,1.243,1.227,1.214,1.205,1.199,1.197,1.194,1.194,1.194,1.197,1.197,1.199,1.199,1.203,1.205,1.207,1.207,1.209,1.209,1.209,1.209,1.205,1.203,1.201,1.199,1.194,1.19,1.188,1.184,1.18,1.178,1.174,1.17,1.168,1.164,1.16,1.156,1.152,1.148,1.142,1.136,1.129,1.121,1.115,1.108,1.105,1.097,1.092
1.394,1.394,1.397,1.397,1.4,1.4,1.4,1.4,1.4,1.4,1.4,1.4,1.4,1.397,1.397,1.394,1.394,1.391,1.391,1.391,1.391,1.391,1.391,1.394,1.394,1.394,1.397,1.397,1.4,1.403,1.403,1.406,1.406,1.406,1.409,1.409,1.409,1.409,1.409,1.409,1.409,1.409,1.409,1.409,1.409,1.409,1.412,1.412,1.412,1.412,1.412,1.412,1.412,1.415,1.415,1.418,1.421,1.421,1.424,1.424,1.424,1.427,1.427,1.427,1.427,1.427,1.427,1.427,1.427,1.43,1.43,1.43,1.43,1.43,1.433,1.433,1.433,1.433,1.436,1.436,1.436,1.436,1.433,1.433,1.433,1.433,1.43,1.43,1.427,1.427,1.424,1.424,1.424,1.424,1.424,1.424,1.421,1.424,1.424,1.421,1.421,1.424,1.424,1.424,1.424,1.424,1.424,1.424,1.424,1.424,1.424,1.424,1.424,1.424,1.424,1.424,1.424,1.421,1.418,1.415,1.412,1.409,1.409,1.409,1.409,1.412,1.418,1.424,1.43,1.436,1.445,1.451,1.454,1.458,1.458,1.461,1.458,1.458,1.458,1.454,1.454,1.451,1.448,1.445,1.445,1.442,1.442,1.442,1.442,1.439,1.439,1.439,1.439,1.439,1.439,1.439,1.436,1.436,1.436,1.436,1.433,1.433,1.43,1.43,1.427,1.427,1.424,1.424,1.424,1.424,1.424,1.421,1.424,1.424,1.424,1.427,1.427,1.43,1.43,1.433,1.436,1.436,1.439,1.439,1.439,1.439,1.439,1.436,1.436,1.433,1.433,1.43,1.427,1.424,1.421,1.421,1.421,1.421,1.421,1.421,1.421,1.421,1.424,1.424,1.427,1.427,1.427,1.427,1.427,1.427,1.43,1.43,1.43,1.43,1.43,1.43,1.433,1.433,1.433,1.433,1.433,1.433,1.436,1.436,1.436,1.433,1.433,1.433,1.433,1.433,1.433,1.436,1.436,1.436,1.436,1.439,1.439,1.439,1.439,1.439,1.439,1.439,1.439,1.439,1.439,1.439,1.439,1.439,1.439,1.436,1.436,1.436,1.436,1.436,1.433,1.433,1.433,1.43,1.43,1.43,1.427,1.427,1.427,1.424,1.424,1.421,1.421,1.418,1.418,1.415,1.415,1.415,1.415,1.415,1.415,1.415,1.415,1.415,1.418,1.418,1.418,1.418,1.418,1.418,1.415,1.415,1.415,1.415,1.415,1.415,1.418,1.418,1.418,1.418,1.418,1.418,1.421,1.421,1.421,1.421,1.421,1.421,1.421,1.424,1.421,1.421,1.421,1.421,1.421,1.421,1.424,1.424,1.427,1.427,1.43,1.43,1.43,1.433,1.433,1.43,1.433,1.43,1.43,1.43,1.43,1.427,1.424,1.424,1.424,1.424,1.421,1.421,1.421,1.421,1.421,1.421,1.421,1.418,1.418,1.415,1.412,1.409,1.409,1.406,1.403,1.403,1.4,1.4,1.4,1.4,1.403,1.403,1.406,1.409,1.409,1.412,1.415,1.418,1.421,1.421,1.424,1.424,1.427,1.43,1.43,1.433,1.433,1.433,1.433,1.433,1.433,1.433,1.43,1.43,1.43,1.427,1.427,1.424,1.424,1.421,1.421,1.418,1.418,1.415,1.415,1.415,1.412,1.412,1.409,1.409,1.406,1.406,1.406,1.406,1.403,1.406,1.406,1.406,1.406,1.406,1.406,1.406,1.406,1.406,1.406,1.406,1.409,1.409,1.409,1.409,1.409,1.409,1.409,1.409,1.409,1.409,1.412,1.412,1.415,1.415,1.415,1.418,1.418,1.418,1.418,1.418,1.418,1.418,1.418,1.418,1.418,1.418,1.415,1.415,1.415,1.412,1.412,1.412,1.412,1.412,1.412,1.412,1.415,1.415,1.415,1.415,1.415,1.415,1.412,1.412,1.409,1.409,1.409,1.406,1.403,1.403,1.4,1.397,1.391,1.389,1.383,1.374,1.369,1.361,1.352,1.344,1.336,1.331,1.326,1.321,1.318,1.313,1.308,1.305,1.303,1.3,1.298,1.293,1.285,1.278,1.266,1.257,1.245,1.231,1.218,1.209,1.203,1.201,1.199,1.197,1.197,1.199,1.199,1.199,1.201,1.201,1.205,1.207,1.209,1.209,1.209,1.207,1.207,1.203,1.201,1.199,1.197,1.194,1.19,1.186,1.184,1.18,1.178,1.176,1.172,1.168,1.166,1.164,1.16,1.156,1.152,1.146,1.14,1.134,1.127,1.119,1.112,1.106,1.101,1.096
1.383,1.383,1.386,1.386,1.386,1.389,1.389,1.389,1.389,1.389,1.389,1.389,1.389,1.386,1.386,1.383,1.383,1.383,1.38,1.38,1.38,1.38,1.383,1.383,1.383,1.383,1.386,1.389,1.389,1.389,1.391,1.394,1.394,1.397,1.397,1.4,1.4,1.4,1.4,1.4,1.4,1.4,1.4,1.4,1.4,1.4,1.4,1.4,1.403,1.403,1.403,1.403,1.403,1.403,1.406,1.406,1.409,1.409,1.412,1.412,1.412,1.415,1.415,1.415,1.415,1.415,1.415,1.415,1.415,1.415,1.415,1.415,1.415,1.418,1.418,1.418,1.418,1.418,1.418,1.418,1.418,1.418,1.415,1.418,1.418,1.415,1.415,1.415,1.412,1.412,1.412,1.412,1.412,1.412,1.412,1.412,1.412,1.412,1.412,1.412,1.412,1.412,1.412,1.412,1.412,1.412,1.412,1.412,1.412,1.412,1.412,1.412,1.412,1.412,1.409,1.409,1.409,1.409,1.406,1.4,1.397,1.397,1.394,1.394,1.397,1.4,1.406,1.412,1.421,1.427,1.433,1.439,1.442,1.445,1.448,1.448,1.445,1.445,1.442,1.442,1.436,1.436,1.433,1.43,1.43,1.427,1.427,1.427,1.424,1.424,1.424,1.424,1.424,1.424,1.424,1.424,1.424,1.421,1.421,1.421,1.421,1.421,1.418,1.418,1.415,1.415,1.415,1.412,1.412,1.409,1.409,1.409,1.409,1.412,1.412,1.415,1.415,1.418,1.418,1.421,1.421,1.424,1.427,1.427,1.427,1.43,1.427,1.427,1.424,1.424,1.421,1.421,1.418,1.415,1.409,1.409,1.409,1.409,1.409,1.409,1.409,1.409,1.412,1.412,1.412,1.415,1.415,1.415,1.415,1.415,1.415,1.415,1.415,1.415,1.415,1.418,1.418,1.418,1.421,1.421,1.421,1.421,1.421,1.421,1.421,1.421,1.421,1.421,1.421,1.418,1.418,1.421,1.421,1.421,1.421,1.421,1.421,1.424,1.424,1.424,1.424,1.424,1.424,1.427,1.427,1.427,1.427,1.427,1.427,1.427,1.424,1.424,1.424,1.424,1.424,1.421,1.421,1.421,1.418,1.418,1.418,1.415,1.415,1.412,1.412,1.409,1.409,1.406,1.406,1.406,1.403,1.403,1.403,1.403,1.403,1.403,1.403,1.406,1.406,1.406,1.406,1.406,1.406,1.406,1.406,1.406,1.406,1.406,1.406,1.406,1.406,1.406,1.409,1.409,1.409,1.409,1.409,1.412,1.412,1.412,1.412,1.412,1.412,1.412,1.412,1.412,1.412,1.412,1.412,1.412,1.415,1.415,1.415,1.418,1.418,1.418,1.421,1.421,1.421,1.421,1.421,1.418,1.418,1.418,1.418,1.415,1.412,1.412,1.412,1.412,1.409,1.409,1.409,1.409,1.409,1.409,1.406,1.406,1.406,1.403,1.4,1.4,1.397,1.394,1.394,1.391,1.391,1.391,1.389,1.391,1.391,1.391,1.394,1.397,1.397,1.4,1.403,1.406,1.406,1.409,1.412,1.412,1.415,1.415,1.418,1.418,1.418,1.418,1.421,1.421,1.421,1.421,1.421,1.418,1.418,1.418,1.415,1.415,1.412,1.409,1.409,1.409,1.406,1.406,1.406,1.403,1.403,1.403,1.4,1.4,1.397,1.397,1.394,1.394,1.394,1.394,1.394,1.394,1.397,1.397,1.397,1.394,1.394,1.394,1.397,1.397,1.397,1.397,1.397,1.397,1.397,1.397,1.397,1.397,1.397,1.4,1.4,1.4,1.403,1.403,1.406,1.406,1.406,1.406,1.406,1.409,1.409,1.409,1.409,1.406,1.406,1.406,1.403,1.403,1.4,1.4,1.4,1.4,1.4,1.4,1.4,1.4,1.403,1.403,1.403,1.403,1.403,1.403,1.403,1.4,1.4,1.397,1.397,1.394,1.391,1.391,1.389,1.386,1.383,1.38,1.374,1.369,1.363,1.355,1.35,1.344,1.336,1.331,1.328,1.323,1.318,1.313,1.31,1.305,1.303,1.3,1.298,1.293,1.285,1.278,1.269,1.259,1.25,1.236,1.223,1.216,1.209,1.207,1.205,1.203,1.203,1.203,1.203,1.203,1.203,1.203,1.205,1.207,1.209,1.209,1.207,1.207,1.203,1.201,1.199,1.197,1.192,1.19,1.188,1.184,1.182,1.18,1.178,1.176,1.172,1.17,1.168,1.164,1.162,1.158,1.154,1.148,1.142,1.136,1.13,1.123,1.115,1.11,1.105,1.099
1.372,1.372,1.372,1.372,1.372,1.374,1.374,1.374,1.377,1.377,1.377,1.377,1.377,1.377,1.374,1.374,1.374,1.374,1.374,1.372,1.372,1.372,1.372,1.374,1.374,1.374,1.374,1.377,1.377,1.38,1.38,1.38,1.383,1.386,1.386,1.386,1.386,1.386,1.389,1.389,1.389,1.389,1.389,1.389,1.389,1.389,1.389,1.389,1.389,1.389,1.389,1.391,1.391,1.391,1.394,1.394,1.397,1.397,1.397,1.4,1.4,1.403,1.403,1.403,1.403,1.403,1.403,1.403,1.403,1.403,1.403,1.403,1.403,1.403,1.403,1.403,1.403,1.403,1.403,1.403,1.403,1.403,1.4,1.403,1.403,1.403,1.403,1.403,1.4,1.4,1.4,1.4,1.4,1.4,1.4,1.4,1.4,1.403,1.403,1.4,1.403,1.403,1.403,1.403,1.4,1.403,1.403,1.4,1.4,1.4,1.4,1.4,1.4,1.4,1.4,1.397,1.397,1.397,1.394,1.389,1.386,1.386,1.383,1.383,1.386,1.389,1.391,1.397,1.406,1.412,1.418,1.424,1.43,1.433,1.433,1.433,1.433,1.43,1.427,1.427,1.424,1.421,1.418,1.418,1.415,1.415,1.412,1.412,1.412,1.409,1.409,1.409,1.409,1.409,1.409,1.409,1.409,1.409,1.406,1.406,1.406,1.406,1.406,1.406,1.403,1.403,1.403,1.4,1.4,1.4,1.4,1.397,1.4,1.4,1.4,1.403,1.403,1.406,1.406,1.409,1.412,1.415,1.415,1.415,1.415,1.418,1.418,1.415,1.415,1.412,1.412,1.409,1.406,1.403,1.4,1.397,1.397,1.397,1.397,1.397,1.397,1.397,1.4,1.4,1.4,1.4,1.4,1.4,1.403,1.403,1.403,1.403,1.403,1.403,1.403,1.403,1.406,1.406,1.406,1.406,1.409,1.409,1.409,1.409,1.409,1.409,1.406,1.406,1.406,1.406,1.406,1.406,1.409,1.409,1.409,1.409,1.409,1.409,1.412,1.412,1.412,1.412,1.412,1.412,1.415,1.415,1.415,1.415,1.415,1.415,1.412,1.412,1.412,1.412,1.412,1.412,1.409,1.409,1.409,1.406,1.406,1.403,1.403,1.4,1.4,1.397,1.397,1.394,1.394,1.394,1.394,1.394,1.394,1.394,1.394,1.394,1.394,1.394,1.394,1.394,1.397,1.397,1.397,1.394,1.394,1.394,1.397,1.397,1.394,1.394,1.397,1.397,1.397,1.397,1.4,1.4,1.4,1.4,1.4,1.4,1.4,1.4,1.403,1.403,1.403,1.403,1.403,1.4,1.4,1.403,1.403,1.403,1.406,1.406,1.409,1.409,1.409,1.409,1.409,1.409,1.409,1.406,1.406,1.406,1.403,1.403,1.4,1.4,1.397,1.397,1.397,1.397,1.397,1.397,1.397,1.394,1.394,1.394,1.394,1.391,1.389,1.389,1.389,1.386,1.386,1.383,1.383,1.383,1.383,1.38,1.383,1.383,1.386,1.386,1.386,1.389,1.391,1.391,1.394,1.394,1.397,1.4,1.4,1.403,1.403,1.403,1.406,1.406,1.406,1.406,1.406,1.406,1.406,1.406,1.406,1.406,1.403,1.403,1.4,1.4,1.397,1.397,1.397,1.394,1.394,1.394,1.394,1.391,1.391,1.389,1.386,1.386,1.386,1.386,1.386,1.386,1.386,1.386,1.386,1.386,1.386,1.383,1.386,1.386,1.386,1.386,1.386,1.386,1.389,1.389,1.389,1.389,1.389,1.389,1.389,1.389,1.391,1.391,1.391,1.394,1.394,1.394,1.394,1.397,1.397,1.397,1.397,1.397,1.394,1.394,1.394,1.391,1.391,1.391,1.391,1.389,1.389,1.389,1.389,1.389,1.389,1.391,1.391,1.391,1.394,1.394,1.391,1.391,1.391,1.389,1.389,1.386,1.386,1.383,1.38,1.38,1.377,1.374,1.372,1.369,1.366,1.363,1.358,1.352,1.347,1.342,1.336,1.334,1.328,1.323,1.321,1.316,1.313,1.308,1.305,1.303,1.3,1.293,1.29,1.281,1.273,1.261,1.252,1.241,1.231,1.225,1.22,1.216,1.214,1.212,1.209,1.209,1.209,1.207,1.207,1.205,1.205,1.207,1.207,1.207,1.205,1.205,1.201,1.199,1.197,1.194,1.192,1.188,1.186,1.182,1.18,1.178,1.176,1.176,1.172,1.17,1.168,1.164,1.162,1.16,1.156,1.15,1.144,1.138,1.13,1.123,1.117,1.114,1.106,1.101
1.361,1.361,1.361,1.361,1.361,1.361,1.363,1.363,1.363,1.363,1.366,1.366,1.366,1.366,1.366,1.363,1.363,1.363,1.363,1.363,1.363,1.363,1.363,1.363,1.363,1.363,1.366,1.366,1.366,1.369,1.369,1.369,1.372,1.372,1.374,1.374,1.374,1.377,1.377,1.377,1.377,1.377,1.377,1.377,1.377,1.377,1.377,1.377,1.374,1.377,1.377,1.377,1.377,1.38,1.38,1.383,1.383,1.386,1.386,1.389,1.389,1.391,1.391,1.391,1.391,1.391,1.394,1.394,1.394,1.391,1.391,1.391,1.391,1.391,1.391,1.391,1.391,1.391,1.391,1.391,1.391,1.391,1.391,1.391,1.391,1.391,1.391,1.391,1.389,1.389,1.389,1.389,1.389,1.389,1.391,1.391,1.391,1.391,1.391,1.391,1.391,1.391,1.391,1.391,1.391,1.391,1.391,1.391,1.391,1.391,1.391,1.389,1.389,1.389,1.389,1.389,1.386,1.383,1.38,1.377,1.374,1.372,1.372,1.372,1.372,1.374,1.38,1.386,1.394,1.4,1.406,1.412,1.415,1.418,1.418,1.418,1.418,1.415,1.415,1.415,1.412,1.409,1.406,1.406,1.403,1.403,1.4,1.4,1.4,1.397,1.397,1.397,1.397,1.397,1.397,1.397,1.397,1.394,1.394,1.394,1.394,1.391,1.391,1.391,1.391,1.391,1.391,1.389,1.389,1.389,1.389,1.389,1.389,1.389,1.391,1.391,1.391,1.394,1.394,1.397,1.397,1.4,1.403,1.403,1.403,1.406,1.406,1.403,1.403,1.403,1.4,1.397,1.394,1.391,1.389,1.389,1.386,1.386,1.386,1.386,1.386,1.389,1.389,1.389,1.389,1.391,1.391,1.391,1.391,1.391,1.391,1.391,1.391,1.391,1.391,1.394,1.394,1.394,1.394,1.394,1.394,1.394,1.397,1.397,1.394,1.394,1.394,1.394,1.394,1.394,1.394,1.394,1.394,1.397,1.397,1.397,1.397,1.397,1.397,1.4,1.4,1.4,1.4,1.4,1.4,1.403,1.403,1.403,1.403,1.403,1.4,1.4,1.4,1.4,1.4,1.4,1.4,1.397,1.397,1.394,1.394,1.391,1.391,1.391,1.389,1.389,1.386,1.386,1.386,1.383,1.383,1.383,1.383,1.383,1.383,1.383,1.383,1.383,1.386,1.386,1.386,1.386,1.386,1.386,1.386,1.386,1.386,1.386,1.386,1.386,1.386,1.386,1.389,1.389,1.389,1.389,1.389,1.391,1.391,1.391,1.391,1.391,1.391,1.391,1.391,1.391,1.391,1.391,1.391,1.394,1.394,1.394,1.394,1.397,1.397,1.397,1.4,1.4,1.397,1.397,1.397,1.394,1.394,1.391,1.391,1.389,1.389,1.386,1.386,1.383,1.383,1.383,1.383,1.383,1.383,1.383,1.383,1.383,1.383,1.38,1.38,1.38,1.377,1.377,1.374,1.374,1.374,1.374,1.374,1.374,1.374,1.374,1.374,1.374,1.377,1.377,1.38,1.38,1.383,1.383,1.386,1.386,1.386,1.389,1.389,1.389,1.391,1.391,1.391,1.394,1.394,1.394,1.394,1.394,1.391,1.391,1.391,1.391,1.389,1.389,1.389,1.386,1.386,1.383,1.383,1.383,1.38,1.38,1.38,1.377,1.377,1.377,1.374,1.374,1.374,1.374,1.374,1.374,1.374,1.372,1.374,1.374,1.374,1.374,1.374,1.374,1.374,1.377,1.377,1.377,1.377,1.377,1.377,1.377,1.38,1.38,1.38,1.38,1.383,1.383,1.383,1.383,1.386,1.386,1.386,1.386,1.386,1.383,1.383,1.383,1.38,1.38,1.38,1.38,1.38,1.377,1.377,1.377,1.377,1.38,1.38,1.38,1.38,1.383,1.383,1.383,1.38,1.38,1.38,1.377,1.377,1.374,1.374,1.372,1.372,1.369,1.369,1.366,1.363,1.361,1.358,1.358,1.352,1.35,1.347,1.342,1.336,1.334,1.331,1.326,1.323,1.318,1.313,1.313,1.308,1.305,1.3,1.295,1.29,1.283,1.276,1.266,1.257,1.245,1.236,1.231,1.227,1.225,1.223,1.22,1.218,1.216,1.216,1.214,1.212,1.209,1.207,1.209,1.207,1.207,1.205,1.203,1.199,1.197,1.192,1.19,1.188,1.186,1.184,1.182,1.178,1.178,1.176,1.174,1.172,1.17,1.166,1.164,1.162,1.158,1.156,1.15,1.144,1.138,1.13,1.125,1.119,1.114,1.11,1.105
1.35,1.347,1.347,1.347,1.35,1.35,1.35,1.35,1.352,1.352,1.355,1.355,1.358,1.355,1.355,1.355,1.355,1.355,1.355,1.355,1.355,1.352,1.352,1.352,1.352,1.352,1.355,1.355,1.355,1.358,1.358,1.361,1.361,1.361,1.363,1.363,1.363,1.366,1.366,1.366,1.366,1.366,1.366,1.366,1.366,1.366,1.366,1.366,1.363,1.366,1.366,1.366,1.366,1.366,1.369,1.369,1.372,1.372,1.374,1.374,1.377,1.377,1.377,1.377,1.38,1.38,1.38,1.38,1.38,1.38,1.38,1.377,1.377,1.38,1.38,1.377,1.377,1.377,1.38,1.38,1.377,1.377,1.377,1.377,1.377,1.377,1.377,1.377,1.377,1.377,1.377,1.377,1.377,1.38,1.38,1.38,1.38,1.383,1.383,1.383,1.383,1.383,1.38,1.38,1.38,1.38,1.38,1.38,1.38,1.377,1.38,1.38,1.377,1.377,1.377,1.374,1.374,1.372,1.369,1.366,1.363,1.361,1.358,1.358,1.361,1.363,1.366,1.374,1.383,1.389,1.394,1.397,1.4,1.403,1.406,1.406,1.403,1.403,1.403,1.4,1.397,1.397,1.394,1.391,1.391,1.391,1.389,1.389,1.386,1.386,1.386,1.386,1.386,1.386,1.386,1.383,1.383,1.383,1.383,1.38,1.38,1.38,1.38,1.38,1.377,1.377,1.377,1.377,1.377,1.377,1.377,1.377,1.377,1.377,1.38,1.38,1.383,1.383,1.383,1.386,1.386,1.389,1.391,1.391,1.391,1.391,1.391,1.391,1.389,1.389,1.386,1.386,1.383,1.38,1.377,1.377,1.377,1.374,1.374,1.374,1.377,1.377,1.377,1.377,1.377,1.38,1.38,1.38,1.38,1.38,1.38,1.38,1.38,1.38,1.383,1.383,1.383,1.383,1.383,1.383,1.383,1.383,1.383,1.383,1.383,1.383,1.38,1.38,1.38,1.38,1.38,1.383,1.383,1.383,1.383,1.383,1.386,1.386,1.386,1.386,1.386,1.389,1.389,1.389,1.389,1.389,1.389,1.389,1.389,1.389,1.389,1.389,1.389,1.389,1.389,1.389,1.389,1.386,1.386,1.386,1.383,1.383,1.38,1.38,1.377,1.377,1.377,1.374,1.374,1.374,1.374,1.374,1.374,1.374,1.374,1.374,1.374,1.374,1.374,1.374,1.374,1.377,1.377,1.374,1.377,1.377,1.377,1.377,1.377,1.374,1.374,1.377,1.377,1.377,1.377,1.377,1.38,1.38,1.38,1.38,1.38,1.38,1.383,1.383,1.383,1.383,1.383,1.383,1.383,1.383,1.383,1.386,1.386,1.386,1.386,1.389,1.389,1.389,1.386,1.386,1.386,1.383,1.383,1.38,1.377,1.374,1.374,1.372,1.372,1.372,1.369,1.369,1.369,1.369,1.372,1.372,1.372,1.372,1.372,1.372,1.372,1.369,1.369,1.369,1.369,1.366,1.366,1.366,1.366,1.366,1.366,1.366,1.366,1.366,1.366,1.366,1.369,1.369,1.369,1.372,1.372,1.374,1.374,1.374,1.377,1.377,1.377,1.377,1.377,1.38,1.38,1.38,1.38,1.38,1.38,1.38,1.38,1.377,1.377,1.374,1.374,1.374,1.374,1.372,1.372,1.372,1.372,1.369,1.369,1.366,1.366,1.363,1.363,1.363,1.361,1.361,1.361,1.361,1.361,1.363,1.363,1.363,1.363,1.363,1.363,1.363,1.366,1.366,1.366,1.366,1.369,1.369,1.369,1.369,1.369,1.369,1.372,1.372,1.372,1.372,1.374,1.374,1.374,1.374,1.374,1.374,1.372,1.372,1.372,1.369,1.369,1.369,1.369,1.369,1.369,1.366,1.366,1.369,1.369,1.369,1.369,1.369,1.372,1.372,1.372,1.372,1.369,1.369,1.366,1.366,1.366,1.363,1.361,1.363,1.361,1.361,1.361,1.358,1.355,1.355,1.355,1.352,1.352,1.35,1.347,1.342,1.339,1.336,1.334,1.328,1.323,1.321,1.316,1.313,1.31,1.308,1.303,1.298,1.293,1.285,1.278,1.269,1.259,1.247,1.243,1.238,1.236,1.231,1.229,1.227,1.225,1.223,1.22,1.218,1.216,1.212,1.209,1.212,1.209,1.207,1.203,1.201,1.199,1.194,1.19,1.19,1.186,1.184,1.18,1.18,1.178,1.176,1.176,1.174,1.17,1.17,1.166,1.162,1.16,1.156,1.154,1.148,1.142,1.136,1.13,1.123,1.119,1.114,1.108,1.105
1.339,1.336,1.339,1.339,1.339,1.339,1.339,1.342,1.342,1.344,1.344,1.344,1.347,1.347,1.347,1.347,1.347,1.347,1.347,1.347,1.344,1.344,1.344,1.344,1.344,1.344,1.344,1.344,1.344,1.347,1.347,1.35,1.35,1.352,1.352,1.352,1.352,1.355,1.355,1.355,1.355,1.355,1.355,1.355,1.355,1.355,1.352,1.352,1.352,1.352,1.352,1.352,1.352,1.352,1.355,1.355,1.358,1.358,1.361,1.361,1.363,1.363,1.366,1.366,1.366,1.366,1.369,1.366,1.366,1.366,1.366,1.366,1.366,1.366,1.366,1.366,1.366,1.366,1.366,1.366,1.366,1.363,1.366,1.366,1.366,1.366,1.366,1.366,1.363,1.366,1.366,1.366,1.366,1.369,1.369,1.372,1.372,1.372,1.372,1.374,1.372,1.372,1.369,1.369,1.369,1.369,1.369,1.366,1.366,1.366,1.366,1.366,1.363,1.363,1.363,1.363,1.363,1.361,1.358,1.355,1.352,1.35,1.347,1.347,1.35,1.352,1.355,1.363,1.369,1.374,1.38,1.383,1.386,1.389,1.391,1.391,1.389,1.389,1.389,1.386,1.386,1.383,1.383,1.38,1.38,1.377,1.377,1.377,1.374,1.374,1.374,1.374,1.374,1.372,1.372,1.369,1.369,1.369,1.366,1.366,1.366,1.366,1.366,1.366,1.366,1.366,1.363,1.366,1.366,1.366,1.366,1.366,1.366,1.366,1.369,1.369,1.369,1.372,1.372,1.374,1.374,1.374,1.377,1.377,1.377,1.38,1.38,1.377,1.377,1.374,1.374,1.372,1.372,1.369,1.366,1.366,1.363,1.363,1.363,1.363,1.363,1.366,1.366,1.366,1.366,1.369,1.369,1.369,1.369,1.369,1.369,1.369,1.369,1.369,1.372,1.372,1.372,1.372,1.372,1.372,1.372,1.372,1.372,1.369,1.372,1.369,1.369,1.369,1.369,1.366,1.369,1.369,1.369,1.372,1.372,1.372,1.372,1.372,1.374,1.374,1.374,1.374,1.374,1.374,1.377,1.377,1.377,1.377,1.377,1.377,1.377,1.377,1.377,1.377,1.377,1.377,1.377,1.374,1.374,1.374,1.372,1.372,1.372,1.369,1.366,1.366,1.366,1.363,1.363,1.363,1.363,1.363,1.363,1.363,1.363,1.363,1.363,1.363,1.366,1.366,1.366,1.366,1.366,1.366,1.366,1.366,1.366,1.366,1.366,1.366,1.366,1.366,1.366,1.366,1.369,1.369,1.369,1.369,1.369,1.372,1.369,1.369,1.372,1.372,1.372,1.372,1.372,1.372,1.372,1.374,1.374,1.374,1.374,1.374,1.377,1.377,1.377,1.374,1.374,1.374,1.372,1.372,1.369,1.366,1.366,1.363,1.361,1.361,1.358,1.358,1.358,1.358,1.358,1.358,1.358,1.361,1.361,1.361,1.361,1.361,1.361,1.361,1.361,1.361,1.361,1.358,1.358,1.358,1.358,1.358,1.358,1.358,1.358,1.358,1.358,1.358,1.358,1.361,1.361,1.358,1.361,1.361,1.361,1.361,1.363,1.363,1.363,1.363,1.366,1.366,1.366,1.366,1.366,1.366,1.366,1.366,1.366,1.366,1.366,1.363,1.363,1.363,1.361,1.361,1.361,1.358,1.358,1.358,1.355,1.355,1.352,1.352,1.352,1.352,1.35,1.35,1.35,1.35,1.35,1.35,1.35,1.35,1.352,1.352,1.352,1.352,1.352,1.355,1.358,1.358,1.361,1.361,1.361,1.361,1.361,1.363,1.363,1.363,1.363,1.363,1.366,1.366,1.366,1.363,1.363,1.361,1.361,1.361,1.361,1.358,1.358,1.358,1.358,1.358,1.358,1.358,1.358,1.358,1.358,1.358,1.358,1.358,1.361,1.361,1.361,1.361,1.358,1.358,1.355,1.355,1.355,1.352,1.352,1.352,1.352,1.35,1.35,1.35,1.35,1.35,1.35,1.35,1.347,1.347,1.344,1.342,1.339,1.336,1.334,1.328,1.326,1.321,1.316,1.316,1.31,1.308,1.303,1.298,1.293,1.288,1.281,1.273,1.264,1.257,1.25,1.247,1.243,1.241,1.236,1.234,1.234,1.229,1.227,1.223,1.22,1.216,1.214,1.214,1.209,1.207,1.203,1.199,1.197,1.192,1.188,1.186,1.182,1.18,1.178,1.176,1.174,1.174,1.172,1.172,1.17,1.166,1.164,1.162,1.158,1.156,1.15,1.146,1.14,1.132,1.129,1.121,1.117,1.112,1.106,1.105
1.328,1.328,1.328,1.328,1.331,1.331,1.331,1.331,1.331,1.334,1.334,1.336,1.336,1.336,1.336,1.336,1.336,1.336,1.336,1.336,1.336,1.334,1.334,1.336,1.336,1.334,1.334,1.336,1.336,1.336,1.336,1.339,1.339,1.342,1.342,1.342,1.342,1.342,1.344,1.344,1.344,1.344,1.342,1.342,1.342,1.342,1.342,1.342,1.339,1.339,1.339,1.339,1.339,1.339,1.342,1.342,1.344,1.344,1.347,1.347,1.35,1.35,1.352,1.352,1.352,1.352,1.355,1.355,1.355,1.352,1.352,1.352,1.355,1.355,1.352,1.352,1.352,1.352,1.352,1.352,1.352,1.352,1.355,1.355,1.355,1.355,1.355,1.352,1.352,1.355,1.355,1.355,1.355,1.358,1.361,1.361,1.361,1.363,1.363,1.363,1.363,1.361,1.361,1.361,1.361,1.358,1.358,1.358,1.355,1.355,1.355,1.355,1.352,1.352,1.35,1.352,1.35,1.35,1.347,1.344,1.342,1.339,1.336,1.336,1.339,1.342,1.344,1.35,1.355,1.361,1.366,1.369,1.372,1.374,1.374,1.374,1.374,1.374,1.374,1.374,1.372,1.372,1.369,1.369,1.366,1.366,1.363,1.363,1.363,1.361,1.361,1.361,1.361,1.358,1.358,1.355,1.355,1.355,1.352,1.352,1.352,1.352,1.352,1.352,1.352,1.352,1.352,1.352,1.352,1.352,1.355,1.355,1.355,1.358,1.358,1.358,1.358,1.358,1.361,1.361,1.363,1.363,1.363,1.363,1.363,1.366,1.363,1.363,1.363,1.363,1.361,1.361,1.358,1.358,1.355,1.355,1.352,1.352,1.352,1.355,1.355,1.355,1.355,1.355,1.358,1.358,1.358,1.358,1.358,1.358,1.358,1.361,1.358,1.358,1.361,1.361,1.361,1.361,1.358,1.358,1.361,1.358,1.358,1.358,1.358,1.358,1.355,1.355,1.355,1.355,1.355,1.355,1.358,1.358,1.358,1.358,1.358,1.358,1.361,1.361,1.361,1.361,1.361,1.361,1.363,1.363,1.363,1.363,1.363,1.366,1.366,1.366,1.366,1.366,1.366,1.366,1.366,1.366,1.363,1.363,1.363,1.361,1.361,1.358,1.358,1.355,1.355,1.352,1.352,1.352,1.352,1.352,1.352,1.355,1.355,1.355,1.355,1.355,1.355,1.355,1.358,1.358,1.355,1.355,1.358,1.358,1.358,1.355,1.355,1.355,1.355,1.355,1.358,1.358,1.358,1.358,1.358,1.358,1.361,1.361,1.361,1.361,1.361,1.361,1.361,1.361,1.361,1.361,1.361,1.361,1.361,1.363,1.363,1.363,1.363,1.363,1.363,1.363,1.363,1.361,1.361,1.358,1.355,1.352,1.352,1.35,1.35,1.347,1.347,1.347,1.347,1.344,1.347,1.347,1.347,1.347,1.347,1.35,1.35,1.35,1.35,1.352,1.352,1.35,1.35,1.35,1.35,1.35,1.35,1.35,1.347,1.347,1.347,1.347,1.347,1.347,1.35,1.35,1.35,1.35,1.35,1.35,1.35,1.347,1.35,1.35,1.35,1.35,1.35,1.35,1.352,1.352,1.352,1.352,1.355,1.355,1.355,1.352,1.352,1.352,1.352,1.352,1.35,1.35,1.347,1.347,1.347,1.344,1.344,1.344,1.342,1.342,1.342,1.342,1.339,1.339,1.339,1.339,1.339,1.339,1.339,1.339,1.342,1.342,1.342,1.342,1.344,1.347,1.347,1.35,1.35,1.35,1.352,1.352,1.355,1.355,1.355,1.355,1.355,1.358,1.358,1.358,1.355,1.355,1.355,1.352,1.352,1.35,1.35,1.347,1.347,1.347,1.344,1.344,1.344,1.344,1.344,1.344,1.344,1.347,1.347,1.347,1.347,1.347,1.347,1.347,1.347,1.347,1.347,1.344,1.344,1.342,1.342,1.342,1.342,1.342,1.342,1.342,1.342,1.344,1.344,1.344,1.344,1.344,1.342,1.339,1.336,1.334,1.328,1.326,1.321,1.318,1.316,1.31,1.31,1.305,1.303,1.298,1.293,1.288,1.283,1.278,1.269,1.264,1.259,1.257,1.25,1.247,1.243,1.241,1.238,1.236,1.231,1.227,1.223,1.218,1.214,1.212,1.207,1.205,1.201,1.197,1.192,1.188,1.184,1.182,1.18,1.178,1.174,1.172,1.172,1.172,1.172,1.172,1.168,1.166,1.162,1.16,1.156,1.154,1.15,1.144,1.138,1.13,1.125,1.121,1.117,1.112,1.108,1.105
1.321,1.321,1.321,1.321,1.321,1.321,1.321,1.321,1.321,1.323,1.323,1.326,1.326,1.323,1.323,1.326,1.326,1.326,1.326,1.326,1.326,1.326,1.326,1.326,1.326,1.326,1.326,1.323,1.323,1.326,1.326,1.326,1.328,1.328,1.328,1.328,1.331,1.331,1.331,1.331,1.331,1.331,1.331,1.328,1.328,1.328,1.328,1.328,1.328,1.328,1.328,1.326,1.328,1.328,1.328,1.331,1.331,1.334,1.334,1.334,1.336,1.336,1.336,1.339,1.339,1.339,1.342,1.342,1.342,1.342,1.342,1.342,1.342,1.342,1.342,1.339,1.342,1.342,1.342,1.342,1.342,1.342,1.342,1.342,1.342,1.342,1.342,1.342,1.342,1.344,1.344,1.344,1.344,1.347,1.347,1.35,1.35,1.352,1.352,1.352,1.352,1.352,1.35,1.35,1.347,1.347,1.347,1.344,1.344,1.342,1.342,1.342,1.342,1.342,1.339,1.339,1.339,1.339,1.336,1.334,1.334,1.331,1.328,1.328,1.331,1.331,1.336,1.339,1.344,1.347,1.352,1.355,1.358,1.358,1.361,1.361,1.361,1.361,1.361,1.358,1.358,1.358,1.358,1.355,1.355,1.352,1.352,1.35,1.35,1.35,1.347,1.347,1.347,1.344,1.344,1.344,1.342,1.342,1.342,1.339,1.339,1.339,1.339,1.339,1.342,1.342,1.342,1.342,1.344,1.344,1.344,1.344,1.344,1.347,1.347,1.347,1.347,1.347,1.35,1.35,1.35,1.35,1.35,1.35,1.352,1.352,1.352,1.352,1.352,1.35,1.35,1.347,1.347,1.344,1.344,1.344,1.344,1.344,1.344,1.344,1.347,1.347,1.347,1.347,1.347,1.347,1.347,1.35,1.35,1.35,1.35,1.35,1.35,1.35,1.35,1.35,1.35,1.347,1.347,1.347,1.347,1.347,1.347,1.344,1.344,1.344,1.344,1.344,1.344,1.344,1.344,1.344,1.344,1.344,1.344,1.344,1.344,1.344,1.347,1.347,1.347,1.347,1.347,1.347,1.35,1.35,1.35,1.352,1.352,1.352,1.352,1.355,1.355,1.355,1.355,1.355,1.355,1.355,1.355,1.352,1.352,1.35,1.35,1.347,1.347,1.347,1.344,1.344,1.342,1.342,1.342,1.342,1.344,1.344,1.344,1.344,1.344,1.344,1.344,1.347,1.347,1.347,1.344,1.344,1.344,1.344,1.344,1.344,1.344,1.344,1.344,1.347,1.347,1.347,1.347,1.347,1.347,1.35,1.35,1.35,1.35,1.35,1.35,1.35,1.35,1.352,1.352,1.352,1.352,1.352,1.352,1.352,1.352,1.352,1.352,1.352,1.352,1.352,1.35,1.35,1.347,1.347,1.344,1.342,1.342,1.339,1.339,1.336,1.336,1.334,1.336,1.336,1.336,1.336,1.336,1.336,1.339,1.339,1.339,1.339,1.339,1.339,1.342,1.342,1.342,1.342,1.342,1.342,1.342,1.342,1.342,1.339,1.339,1.339,1.339,1.339,1.339,1.339,1.339,1.339,1.339,1.339,1.336,1.336,1.336,1.336,1.336,1.336,1.336,1.336,1.336,1.339,1.339,1.339,1.342,1.342,1.342,1.342,1.342,1.342,1.339,1.339,1.339,1.339,1.336,1.336,1.336,1.334,1.334,1.334,1.334,1.331,1.331,1.331,1.328,1.331,1.328,1.328,1.328,1.328,1.331,1.331,1.331,1.331,1.331,1.334,1.334,1.336,1.336,1.339,1.339,1.342,1.344,1.344,1.347,1.347,1.347,1.347,1.347,1.347,1.347,1.347,1.347,1.347,1.344,1.344,1.342,1.342,1.339,1.336,1.336,1.334,1.334,1.334,1.334,1.334,1.334,1.334,1.334,1.334,1.336,1.336,1.336,1.339,1.336,1.336,1.336,1.334,1.334,1.334,1.334,1.331,1.331,1.331,1.331,1.331,1.331,1.331,1.334,1.336,1.339,1.339,1.339,1.339,1.336,1.336,1.334,1.328,1.326,1.321,1.318,1.316,1.31,1.308,1.305,1.303,1.3,1.298,1.293,1.288,1.283,1.278,1.273,1.266,1.264,1.259,1.254,1.252,1.247,1.245,1.241,1.238,1.234,1.227,1.223,1.218,1.214,1.209,1.207,1.203,1.201,1.194,1.19,1.186,1.182,1.18,1.176,1.174,1.172,1.17,1.17,1.168,1.168,1.166,1.166,1.164,1.16,1.158,1.154,1.15,1.146,1.142,1.136,1.13,1.123,1.119,1.115,1.114,1.108,1.106
1.31,1.31,1.31,1.31,1.31,1.31,1.313,1.313,1.313,1.313,1.313,1.313,1.313,1.313,1.316,1.316,1.316,1.316,1.316,1.316,1.316,1.316,1.316,1.316,1.316,1.313,1.313,1.313,1.313,1.313,1.316,1.316,1.316,1.318,1.318,1.318,1.318,1.321,1.321,1.321,1.321,1.318,1.318,1.318,1.318,1.318,1.316,1.316,1.316,1.316,1.316,1.316,1.316,1.316,1.318,1.318,1.321,1.321,1.321,1.323,1.323,1.323,1.323,1.326,1.326,1.326,1.326,1.326,1.326,1.328,1.328,1.328,1.328,1.328,1.328,1.328,1.328,1.331,1.331,1.331,1.331,1.331,1.331,1.331,1.331,1.331,1.331,1.331,1.331,1.331,1.331,1.334,1.334,1.334,1.336,1.336,1.339,1.339,1.339,1.339,1.339,1.339,1.336,1.336,1.336,1.336,1.334,1.334,1.334,1.331,1.331,1.331,1.331,1.328,1.328,1.331,1.328,1.326,1.323,1.326,1.323,1.321,1.321,1.318,1.321,1.321,1.323,1.328,1.331,1.336,1.339,1.342,1.344,1.344,1.344,1.344,1.344,1.344,1.344,1.344,1.344,1.344,1.344,1.342,1.342,1.342,1.339,1.339,1.339,1.336,1.336,1.336,1.334,1.334,1.331,1.328,1.328,1.328,1.328,1.328,1.326,1.328,1.328,1.328,1.331,1.331,1.331,1.331,1.334,1.334,1.334,1.334,1.334,1.336,1.336,1.336,1.336,1.339,1.339,1.339,1.339,1.339,1.339,1.339,1.339,1.339,1.339,1.339,1.339,1.339,1.339,1.336,1.336,1.334,1.334,1.334,1.334,1.334,1.336,1.336,1.336,1.336,1.339,1.339,1.339,1.339,1.339,1.339,1.339,1.339,1.339,1.339,1.339,1.339,1.339,1.339,1.336,1.336,1.336,1.336,1.334,1.334,1.334,1.334,1.334,1.334,1.334,1.334,1.331,1.331,1.331,1.331,1.331,1.331,1.331,1.331,1.331,1.331,1.331,1.331,1.331,1.331,1.334,1.334,1.334,1.336,1.336,1.336,1.339,1.339,1.342,1.342,1.342,1.344,1.344,1.344,1.344,1.344,1.342,1.342,1.342,1.339,1.339,1.336,1.336,1.336,1.334,1.334,1.334,1.331,1.331,1.334,1.334,1.334,1.334,1.334,1.334,1.334,1.336,1.336,1.336,1.336,1.336,1.334,1.334,1.336,1.336,1.336,1.336,1.334,1.336,1.336,1.336,1.336,1.336,1.336,1.336,1.339,1.339,1.339,1.339,1.339,1.342,1.342,1.342,1.342,1.342,1.342,1.342,1.342,1.342,1.342,1.342,1.339,1.339,1.339,1.339,1.339,1.339,1.339,1.336,1.334,1.334,1.331,1.328,1.328,1.328,1.326,1.326,1.326,1.326,1.326,1.326,1.326,1.326,1.326,1.328,1.328,1.328,1.328,1.331,1.331,1.331,1.334,1.334,1.334,1.334,1.334,1.334,1.331,1.331,1.331,1.331,1.331,1.331,1.331,1.331,1.331,1.328,1.328,1.328,1.328,1.326,1.326,1.323,1.323,1.323,1.323,1.326,1.326,1.326,1.326,1.326,1.326,1.328,1.328,1.328,1.328,1.328,1.328,1.328,1.328,1.328,1.326,1.326,1.326,1.326,1.326,1.323,1.323,1.323,1.321,1.321,1.321,1.321,1.321,1.321,1.321,1.321,1.321,1.321,1.321,1.323,1.323,1.323,1.326,1.326,1.328,1.328,1.331,1.331,1.334,1.334,1.336,1.339,1.339,1.339,1.342,1.342,1.342,1.342,1.342,1.342,1.339,1.339,1.336,1.336,1.334,1.331,1.328,1.328,1.326,1.326,1.326,1.326,1.326,1.326,1.326,1.326,1.326,1.326,1.326,1.328,1.328,1.326,1.326,1.326,1.326,1.323,1.323,1.323,1.321,1.321,1.321,1.321,1.321,1.321,1.323,1.326,1.328,1.331,1.334,1.334,1.334,1.334,1.334,1.331,1.326,1.323,1.318,1.313,1.308,1.308,1.305,1.3,1.298,1.295,1.29,1.288,1.285,1.281,1.276,1.271,1.266,1.264,1.261,1.259,1.252,1.247,1.245,1.243,1.238,1.234,1.227,1.223,1.218,1.214,1.209,1.205,1.201,1.197,1.192,1.188,1.184,1.18,1.178,1.174,1.172,1.17,1.168,1.168,1.168,1.166,1.164,1.164,1.16,1.158,1.154,1.152,1.15,1.146,1.142,1.136,1.13,1.127,1.123,1.119,1.115,1.114,1.112
1.303,1.303,1.303,1.303,1.303,1.303,1.303,1.303,1.303,1.303,1.303,1.303,1.303,1.305,1.305,1.305,1.305,1.305,1.305,1.305,1.305,1.305,1.305,1.303,1.303,1.303,1.303,1.303,1.303,1.303,1.303,1.305,1.305,1.305,1.308,1.308,1.308,1.308,1.31,1.308,1.308,1.308,1.308,1.305,1.305,1.305,1.303,1.303,1.303,1.303,1.303,1.303,1.305,1.305,1.305,1.308,1.308,1.308,1.308,1.31,1.31,1.313,1.313,1.313,1.313,1.313,1.316,1.316,1.316,1.316,1.316,1.318,1.318,1.318,1.318,1.318,1.318,1.318,1.318,1.318,1.318,1.318,1.318,1.318,1.321,1.321,1.321,1.321,1.321,1.321,1.321,1.321,1.323,1.323,1.326,1.326,1.326,1.328,1.328,1.328,1.326,1.326,1.326,1.326,1.323,1.323,1.323,1.323,1.321,1.321,1.321,1.321,1.321,1.321,1.321,1.321,1.318,1.318,1.316,1.316,1.313,1.31,1.31,1.31,1.31,1.31,1.313,1.318,1.318,1.323,1.323,1.326,1.328,1.328,1.328,1.328,1.328,1.328,1.328,1.328,1.328,1.328,1.328,1.328,1.328,1.328,1.328,1.326,1.326,1.326,1.326,1.326,1.323,1.323,1.321,1.321,1.318,1.318,1.318,1.318,1.318,1.318,1.318,1.321,1.321,1.321,1.321,1.323,1.323,1.323,1.326,1.326,1.326,1.326,1.326,1.326,1.328,1.328,1.328,1.328,1.328,1.326,1.326,1.326,1.326,1.326,1.326,1.326,1.326,1.326,1.326,1.326,1.323,1.326,1.326,1.326,1.326,1.326,1.326,1.326,1.328,1.328,1.328,1.328,1.328,1.328,1.328,1.328,1.331,1.331,1.331,1.331,1.328,1.328,1.328,1.328,1.326,1.326,1.326,1.326,1.323,1.323,1.323,1.323,1.323,1.323,1.323,1.323,1.321,1.321,1.321,1.321,1.321,1.321,1.318,1.318,1.318,1.318,1.318,1.318,1.318,1.318,1.321,1.321,1.323,1.323,1.323,1.323,1.326,1.328,1.328,1.331,1.331,1.334,1.334,1.334,1.331,1.331,1.331,1.331,1.328,1.328,1.326,1.326,1.326,1.326,1.323,1.323,1.323,1.321,1.321,1.323,1.323,1.323,1.323,1.323,1.326,1.326,1.326,1.326,1.326,1.326,1.323,1.323,1.323,1.323,1.323,1.323,1.323,1.323,1.323,1.323,1.323,1.326,1.326,1.326,1.326,1.328,1.328,1.328,1.328,1.328,1.328,1.328,1.328,1.331,1.328,1.328,1.328,1.328,1.328,1.328,1.328,1.328,1.328,1.328,1.328,1.328,1.328,1.328,1.326,1.326,1.323,1.323,1.321,1.321,1.318,1.318,1.318,1.318,1.318,1.318,1.318,1.318,1.318,1.318,1.318,1.318,1.321,1.321,1.321,1.321,1.323,1.323,1.323,1.323,1.323,1.323,1.323,1.323,1.323,1.323,1.323,1.323,1.323,1.321,1.321,1.321,1.321,1.321,1.321,1.321,1.318,1.318,1.316,1.316,1.316,1.316,1.316,1.316,1.316,1.316,1.316,1.318,1.318,1.318,1.318,1.318,1.318,1.318,1.318,1.318,1.316,1.316,1.316,1.316,1.316,1.313,1.313,1.313,1.31,1.31,1.31,1.31,1.31,1.31,1.31,1.313,1.313,1.313,1.313,1.313,1.316,1.316,1.316,1.318,1.318,1.321,1.321,1.323,1.323,1.326,1.326,1.328,1.328,1.331,1.331,1.331,1.334,1.334,1.334,1.334,1.334,1.331,1.331,1.328,1.328,1.326,1.323,1.321,1.321,1.318,1.318,1.318,1.316,1.316,1.316,1.316,1.316,1.318,1.318,1.318,1.318,1.316,1.316,1.316,1.316,1.316,1.313,1.313,1.31,1.31,1.31,1.31,1.31,1.31,1.313,1.316,1.318,1.321,1.323,1.328,1.331,1.328,1.328,1.328,1.326,1.321,1.318,1.313,1.308,1.305,1.3,1.298,1.298,1.293,1.288,1.285,1.283,1.281,1.276,1.273,1.269,1.264,1.261,1.259,1.257,1.25,1.247,1.243,1.241,1.236,1.231,1.227,1.22,1.216,1.212,1.207,1.201,1.199,1.192,1.188,1.186,1.182,1.178,1.176,1.174,1.17,1.168,1.166,1.166,1.164,1.164,1.162,1.16,1.156,1.154,1.152,1.15,1.146,1.146,1.142,1.138,1.132,1.13,1.127,1.123,1.121,1.119,1.117
1.293,1.293,1.293,1.293,1.293,1.293,1.293,1.293,1.293,1.293,1.293,1.293,1.293,1.293,1.295,1.295,1.295,1.295,1.295,1.295,1.295,1.295,1.293,1.293,1.293,1.293,1.293,1.293,1.293,1.293,1.293,1.295,1.295,1.295,1.298,1.298,1.298,1.298,1.298,1.298,1.298,1.298,1.295,1.295,1.293,1.293,1.293,1.293,1.293,1.293,1.293,1.293,1.293,1.295,1.295,1.295,1.298,1.298,1.298,1.3,1.3,1.303,1.303,1.303,1.305,1.305,1.305,1.305,1.308,1.308,1.308,1.308,1.308,1.308,1.308,1.308,1.308,1.308,1.31,1.31,1.31,1.308,1.31,1.31,1.31,1.31,1.31,1.31,1.31,1.31,1.31,1.31,1.313,1.313,1.316,1.316,1.318,1.318,1.318,1.318,1.316,1.316,1.316,1.316,1.313,1.313,1.313,1.313,1.313,1.313,1.31,1.31,1.31,1.31,1.313,1.31,1.31,1.308,1.305,1.305,1.303,1.3,1.3,1.3,1.3,1.303,1.303,1.305,1.308,1.31,1.313,1.316,1.313,1.316,1.316,1.316,1.316,1.316,1.316,1.316,1.316,1.318,1.316,1.316,1.316,1.316,1.316,1.316,1.316,1.316,1.313,1.313,1.313,1.313,1.31,1.308,1.308,1.308,1.308,1.308,1.308,1.308,1.31,1.31,1.31,1.313,1.313,1.316,1.316,1.316,1.316,1.318,1.318,1.316,1.316,1.318,1.318,1.318,1.318,1.318,1.316,1.316,1.316,1.316,1.316,1.316,1.316,1.316,1.316,1.316,1.316,1.316,1.316,1.316,1.316,1.318,1.318,1.318,1.318,1.318,1.318,1.321,1.321,1.321,1.321,1.321,1.321,1.321,1.321,1.321,1.321,1.321,1.321,1.321,1.321,1.318,1.318,1.318,1.316,1.316,1.316,1.316,1.313,1.313,1.313,1.313,1.313,1.313,1.313,1.31,1.31,1.31,1.31,1.308,1.308,1.308,1.308,1.308,1.308,1.308,1.308,1.308,1.308,1.31,1.31,1.313,1.313,1.313,1.316,1.316,1.318,1.321,1.321,1.321,1.321,1.321,1.321,1.321,1.321,1.318,1.318,1.318,1.316,1.316,1.316,1.313,1.313,1.313,1.313,1.31,1.31,1.313,1.313,1.313,1.313,1.316,1.316,1.316,1.316,1.316,1.316,1.316,1.313,1.313,1.313,1.313,1.313,1.313,1.313,1.313,1.313,1.313,1.313,1.316,1.316,1.316,1.316,1.318,1.318,1.318,1.318,1.318,1.318,1.318,1.318,1.321,1.318,1.318,1.318,1.318,1.318,1.318,1.318,1.318,1.318,1.318,1.318,1.318,1.318,1.318,1.318,1.316,1.316,1.313,1.313,1.313,1.31,1.31,1.31,1.31,1.31,1.31,1.31,1.31,1.31,1.31,1.31,1.31,1.31,1.31,1.31,1.313,1.313,1.313,1.313,1.313,1.316,1.316,1.313,1.313,1.313,1.313,1.313,1.313,1.313,1.313,1.313,1.313,1.313,1.313,1.31,1.31,1.31,1.31,1.308,1.308,1.308,1.308,1.308,1.308,1.308,1.308,1.308,1.308,1.308,1.308,1.308,1.308,1.308,1.308,1.305,1.305,1.305,1.305,1.303,1.303,1.303,1.303,1.303,1.303,1.3,1.3,1.3,1.3,1.3,1.303,1.303,1.303,1.303,1.303,1.305,1.305,1.305,1.308,1.308,1.308,1.31,1.31,1.313,1.313,1.316,1.316,1.318,1.318,1.321,1.321,1.321,1.323,1.323,1.326,1.326,1.326,1.323,1.323,1.323,1.321,1.321,1.318,1.316,1.313,1.313,1.31,1.31,1.308,1.308,1.308,1.308,1.308,1.308,1.308,1.308,1.308,1.308,1.305,1.305,1.305,1.305,1.305,1.303,1.3,1.3,1.3,1.3,1.3,1.3,1.3,1.303,1.305,1.308,1.313,1.316,1.321,1.323,1.323,1.323,1.323,1.321,1.316,1.31,1.305,1.303,1.298,1.293,1.293,1.288,1.288,1.283,1.281,1.278,1.276,1.273,1.269,1.264,1.259,1.257,1.252,1.25,1.245,1.241,1.236,1.234,1.229,1.225,1.22,1.216,1.212,1.207,1.201,1.197,1.194,1.188,1.186,1.182,1.178,1.174,1.172,1.17,1.168,1.166,1.162,1.162,1.16,1.16,1.158,1.154,1.154,1.15,1.148,1.146,1.146,1.142,1.14,1.138,1.136,1.132,1.13,1.127,1.125,1.123,1.123
1.285,1.285,1.285,1.285,1.285,1.283,1.285,1.283,1.283,1.283,1.283,1.283,1.283,1.283,1.283,1.285,1.285,1.285,1.285,1.285,1.285,1.285,1.283,1.283,1.283,1.283,1.283,1.283,1.283,1.283,1.285,1.285,1.285,1.288,1.288,1.288,1.288,1.29,1.29,1.29,1.288,1.288,1.285,1.285,1.285,1.285,1.285,1.283,1.283,1.283,1.283,1.283,1.285,1.285,1.285,1.285,1.288,1.288,1.288,1.29,1.29,1.293,1.293,1.295,1.295,1.295,1.298,1.298,1.298,1.298,1.3,1.3,1.3,1.3,1.3,1.3,1.3,1.3,1.3,1.3,1.3,1.3,1.3,1.3,1.3,1.3,1.3,1.3,1.3,1.3,1.303,1.303,1.303,1.305,1.308,1.308,1.308,1.308,1.308,1.308,1.305,1.305,1.305,1.305,1.303,1.303,1.303,1.303,1.303,1.303,1.303,1.303,1.303,1.303,1.303,1.303,1.3,1.298,1.295,1.295,1.293,1.29,1.288,1.29,1.29,1.293,1.295,1.298,1.298,1.3,1.303,1.305,1.305,1.305,1.305,1.305,1.305,1.305,1.305,1.305,1.305,1.305,1.305,1.305,1.305,1.305,1.305,1.305,1.303,1.303,1.303,1.303,1.3,1.3,1.3,1.3,1.298,1.298,1.298,1.298,1.298,1.3,1.3,1.303,1.303,1.303,1.305,1.305,1.308,1.308,1.308,1.308,1.308,1.308,1.308,1.308,1.308,1.308,1.308,1.305,1.305,1.305,1.305,1.305,1.305,1.305,1.305,1.305,1.305,1.305,1.305,1.305,1.305,1.308,1.308,1.308,1.308,1.308,1.308,1.31,1.31,1.31,1.31,1.31,1.31,1.31,1.31,1.313,1.313,1.313,1.31,1.31,1.31,1.31,1.308,1.308,1.308,1.308,1.305,1.305,1.305,1.305,1.305,1.303,1.303,1.303,1.303,1.303,1.303,1.303,1.3,1.3,1.3,1.298,1.298,1.298,1.298,1.298,1.298,1.298,1.298,1.298,1.298,1.298,1.3,1.3,1.303,1.305,1.305,1.305,1.308,1.308,1.31,1.31,1.31,1.31,1.31,1.308,1.308,1.308,1.308,1.305,1.305,1.303,1.303,1.303,1.303,1.303,1.303,1.303,1.303,1.303,1.303,1.303,1.305,1.305,1.305,1.305,1.305,1.305,1.305,1.305,1.303,1.303,1.303,1.303,1.303,1.303,1.303,1.303,1.303,1.303,1.305,1.305,1.305,1.305,1.305,1.308,1.308,1.308,1.308,1.308,1.308,1.31,1.31,1.31,1.308,1.308,1.308,1.308,1.305,1.305,1.305,1.305,1.305,1.305,1.308,1.308,1.308,1.308,1.308,1.308,1.305,1.305,1.305,1.305,1.303,1.303,1.303,1.303,1.303,1.303,1.303,1.303,1.303,1.303,1.303,1.303,1.303,1.303,1.303,1.303,1.303,1.305,1.305,1.305,1.305,1.305,1.305,1.305,1.305,1.305,1.305,1.305,1.305,1.305,1.305,1.305,1.303,1.303,1.303,1.303,1.3,1.3,1.3,1.3,1.3,1.3,1.3,1.3,1.3,1.298,1.298,1.298,1.298,1.298,1.298,1.298,1.298,1.298,1.295,1.295,1.295,1.293,1.293,1.293,1.293,1.293,1.293,1.293,1.293,1.29,1.29,1.293,1.293,1.293,1.293,1.293,1.295,1.295,1.295,1.298,1.298,1.298,1.298,1.3,1.3,1.303,1.303,1.305,1.305,1.305,1.308,1.308,1.31,1.31,1.31,1.313,1.313,1.316,1.316,1.316,1.316,1.316,1.313,1.313,1.31,1.31,1.308,1.305,1.305,1.303,1.3,1.3,1.3,1.3,1.298,1.298,1.298,1.298,1.295,1.295,1.298,1.298,1.295,1.295,1.293,1.293,1.293,1.29,1.29,1.29,1.29,1.29,1.29,1.29,1.293,1.295,1.3,1.303,1.308,1.313,1.316,1.316,1.316,1.316,1.313,1.31,1.305,1.3,1.295,1.29,1.285,1.283,1.281,1.278,1.276,1.271,1.269,1.269,1.264,1.261,1.259,1.254,1.252,1.245,1.243,1.236,1.231,1.227,1.225,1.22,1.214,1.209,1.207,1.203,1.199,1.194,1.192,1.188,1.186,1.18,1.178,1.176,1.172,1.17,1.166,1.166,1.164,1.162,1.16,1.158,1.156,1.154,1.152,1.15,1.148,1.146,1.146,1.144,1.142,1.14,1.138,1.136,1.134,1.132,1.132,1.13,1.129,1.129
1.276,1.276,1.276,1.276,1.276,1.276,1.276,1.276,1.276,1.276,1.276,1.276,1.276,1.276,1.276,1.273,1.273,1.273,1.276,1.273,1.273,1.273,1.273,1.273,1.273,1.273,1.273,1.273,1.273,1.276,1.276,1.276,1.278,1.281,1.281,1.281,1.281,1.281,1.281,1.281,1.281,1.281,1.278,1.278,1.276,1.276,1.276,1.276,1.273,1.273,1.273,1.273,1.276,1.276,1.276,1.276,1.276,1.278,1.281,1.281,1.283,1.283,1.285,1.285,1.288,1.288,1.288,1.29,1.29,1.29,1.29,1.293,1.293,1.293,1.293,1.293,1.293,1.293,1.293,1.293,1.293,1.293,1.293,1.293,1.29,1.29,1.293,1.293,1.293,1.293,1.293,1.295,1.295,1.298,1.298,1.298,1.298,1.298,1.298,1.298,1.295,1.295,1.295,1.295,1.293,1.293,1.293,1.29,1.29,1.29,1.29,1.29,1.293,1.293,1.293,1.293,1.29,1.288,1.285,1.285,1.283,1.281,1.278,1.278,1.281,1.283,1.285,1.288,1.29,1.293,1.293,1.295,1.295,1.295,1.295,1.295,1.293,1.293,1.293,1.293,1.293,1.293,1.293,1.293,1.293,1.293,1.293,1.293,1.293,1.29,1.29,1.29,1.29,1.29,1.29,1.29,1.288,1.288,1.288,1.29,1.29,1.29,1.29,1.293,1.293,1.295,1.295,1.295,1.298,1.298,1.298,1.298,1.3,1.298,1.298,1.298,1.298,1.298,1.295,1.295,1.295,1.295,1.293,1.293,1.293,1.293,1.293,1.295,1.295,1.295,1.295,1.298,1.298,1.298,1.3,1.3,1.3,1.3,1.3,1.3,1.3,1.303,1.303,1.303,1.303,1.303,1.303,1.303,1.303,1.303,1.303,1.3,1.3,1.298,1.298,1.298,1.298,1.295,1.295,1.295,1.295,1.295,1.295,1.295,1.293,1.293,1.293,1.293,1.293,1.29,1.29,1.29,1.288,1.288,1.288,1.288,1.288,1.285,1.285,1.285,1.285,1.285,1.288,1.288,1.29,1.29,1.293,1.295,1.295,1.295,1.298,1.298,1.298,1.3,1.3,1.298,1.298,1.295,1.295,1.295,1.295,1.293,1.293,1.293,1.29,1.29,1.29,1.29,1.293,1.293,1.293,1.293,1.295,1.295,1.295,1.295,1.295,1.295,1.295,1.295,1.295,1.295,1.293,1.293,1.293,1.293,1.293,1.293,1.293,1.293,1.293,1.293,1.295,1.295,1.295,1.295,1.295,1.298,1.298,1.298,1.298,1.298,1.298,1.298,1.298,1.298,1.295,1.295,1.295,1.295,1.295,1.295,1.295,1.295,1.295,1.295,1.298,1.298,1.298,1.298,1.298,1.298,1.298,1.298,1.298,1.295,1.295,1.295,1.295,1.295,1.295,1.295,1.295,1.293,1.293,1.293,1.295,1.295,1.295,1.293,1.293,1.293,1.295,1.295,1.295,1.295,1.295,1.295,1.295,1.295,1.295,1.295,1.295,1.298,1.298,1.298,1.298,1.295,1.295,1.295,1.295,1.293,1.293,1.293,1.293,1.29,1.29,1.29,1.29,1.29,1.29,1.29,1.29,1.29,1.29,1.288,1.288,1.288,1.288,1.288,1.288,1.285,1.285,1.285,1.285,1.283,1.283,1.285,1.283,1.283,1.283,1.283,1.283,1.283,1.283,1.283,1.283,1.285,1.285,1.288,1.288,1.288,1.29,1.29,1.29,1.29,1.29,1.293,1.293,1.293,1.295,1.295,1.295,1.298,1.298,1.3,1.3,1.303,1.303,1.303,1.305,1.308,1.305,1.305,1.305,1.305,1.303,1.303,1.3,1.298,1.295,1.295,1.293,1.293,1.29,1.29,1.288,1.288,1.288,1.288,1.288,1.285,1.285,1.285,1.285,1.285,1.283,1.283,1.283,1.281,1.281,1.281,1.281,1.281,1.281,1.283,1.285,1.288,1.29,1.295,1.3,1.303,1.305,1.308,1.308,1.308,1.305,1.3,1.298,1.29,1.285,1.281,1.276,1.273,1.271,1.266,1.264,1.264,1.261,1.259,1.257,1.254,1.252,1.247,1.243,1.241,1.234,1.227,1.223,1.218,1.214,1.209,1.205,1.201,1.197,1.194,1.19,1.188,1.184,1.182,1.18,1.176,1.172,1.17,1.168,1.164,1.164,1.162,1.16,1.158,1.156,1.154,1.154,1.15,1.15,1.148,1.146,1.144,1.142,1.142,1.14,1.138,1.138,1.136,1.136,1.134,1.134,1.132,1.13,1.13
1.266,1.266,1.266,1.266,1.266,1.266,1.266,1.266,1.266,1.266,1.266,1.266,1.266,1.266,1.266,1.264,1.264,1.264,1.264,1.264,1.264,1.264,1.264,1.264,1.264,1.264,1.264,1.264,1.266,1.266,1.266,1.269,1.269,1.271,1.271,1.271,1.271,1.271,1.271,1.271,1.271,1.271,1.269,1.269,1.269,1.269,1.266,1.266,1.266,1.266,1.266,1.266,1.266,1.266,1.266,1.266,1.269,1.269,1.271,1.271,1.273,1.276,1.276,1.278,1.278,1.281,1.281,1.283,1.283,1.283,1.283,1.285,1.285,1.285,1.285,1.285,1.285,1.285,1.285,1.285,1.285,1.285,1.285,1.285,1.285,1.283,1.285,1.285,1.285,1.285,1.285,1.288,1.288,1.288,1.288,1.288,1.288,1.288,1.288,1.288,1.285,1.285,1.285,1.283,1.283,1.283,1.283,1.281,1.281,1.281,1.281,1.281,1.281,1.283,1.283,1.283,1.281,1.278,1.278,1.276,1.273,1.271,1.269,1.269,1.271,1.273,1.276,1.281,1.281,1.283,1.283,1.285,1.285,1.285,1.283,1.283,1.283,1.283,1.281,1.283,1.283,1.283,1.283,1.283,1.283,1.281,1.281,1.281,1.281,1.281,1.281,1.278,1.278,1.278,1.278,1.281,1.281,1.281,1.281,1.281,1.281,1.281,1.283,1.283,1.285,1.285,1.285,1.288,1.288,1.288,1.288,1.29,1.29,1.29,1.29,1.29,1.288,1.288,1.285,1.285,1.285,1.283,1.283,1.283,1.283,1.283,1.283,1.285,1.285,1.285,1.288,1.288,1.288,1.29,1.29,1.29,1.29,1.293,1.293,1.293,1.293,1.293,1.295,1.295,1.295,1.293,1.293,1.293,1.293,1.293,1.293,1.29,1.288,1.288,1.288,1.288,1.285,1.285,1.285,1.285,1.285,1.285,1.285,1.285,1.285,1.283,1.283,1.283,1.283,1.283,1.281,1.281,1.278,1.278,1.278,1.276,1.276,1.276,1.276,1.276,1.276,1.276,1.278,1.278,1.278,1.281,1.283,1.283,1.285,1.285,1.285,1.285,1.285,1.288,1.288,1.285,1.285,1.285,1.285,1.283,1.283,1.283,1.281,1.281,1.281,1.281,1.281,1.281,1.283,1.283,1.283,1.285,1.285,1.285,1.285,1.285,1.288,1.288,1.288,1.288,1.285,1.285,1.285,1.285,1.283,1.283,1.283,1.283,1.283,1.283,1.283,1.283,1.285,1.285,1.285,1.285,1.285,1.285,1.288,1.288,1.288,1.288,1.288,1.285,1.285,1.285,1.285,1.285,1.285,1.285,1.285,1.285,1.285,1.285,1.285,1.285,1.288,1.288,1.288,1.288,1.288,1.288,1.288,1.288,1.288,1.288,1.288,1.288,1.288,1.288,1.285,1.285,1.285,1.285,1.285,1.285,1.285,1.285,1.285,1.285,1.285,1.285,1.285,1.285,1.285,1.285,1.285,1.285,1.285,1.288,1.288,1.288,1.288,1.288,1.288,1.288,1.288,1.288,1.285,1.285,1.285,1.285,1.285,1.283,1.283,1.283,1.283,1.283,1.283,1.283,1.281,1.281,1.281,1.281,1.281,1.278,1.278,1.278,1.278,1.278,1.276,1.276,1.276,1.276,1.276,1.276,1.276,1.273,1.273,1.273,1.273,1.273,1.273,1.273,1.273,1.276,1.276,1.276,1.278,1.278,1.281,1.281,1.281,1.281,1.281,1.281,1.281,1.283,1.283,1.283,1.285,1.285,1.285,1.285,1.288,1.288,1.288,1.29,1.29,1.293,1.295,1.295,1.295,1.295,1.295,1.295,1.293,1.293,1.29,1.288,1.288,1.285,1.283,1.283,1.281,1.281,1.281,1.278,1.278,1.278,1.276,1.276,1.276,1.276,1.276,1.276,1.273,1.273,1.273,1.273,1.273,1.271,1.273,1.273,1.273,1.276,1.276,1.281,1.283,1.288,1.29,1.293,1.298,1.298,1.298,1.298,1.295,1.29,1.285,1.281,1.276,1.271,1.266,1.264,1.261,1.259,1.257,1.257,1.254,1.252,1.25,1.247,1.245,1.243,1.236,1.231,1.225,1.218,1.214,1.207,1.203,1.199,1.192,1.19,1.186,1.186,1.184,1.18,1.178,1.176,1.174,1.17,1.168,1.166,1.162,1.16,1.158,1.156,1.154,1.152,1.152,1.15,1.15,1.148,1.146,1.144,1.142,1.14,1.14,1.138,1.14,1.136,1.136,1.134,1.134,1.134,1.134,1.134,1.132,1.134
1.257,1.257,1.259,1.257,1.257,1.257,1.257,1.257,1.257,1.257,1.257,1.257,1.257,1.257,1.257,1.254,1.254,1.254,1.254,1.254,1.254,1.254,1.254,1.254,1.254,1.254,1.254,1.257,1.257,1.257,1.257,1.259,1.259,1.261,1.261,1.261,1.261,1.261,1.261,1.261,1.261,1.261,1.261,1.259,1.259,1.259,1.259,1.257,1.257,1.257,1.257,1.257,1.257,1.257,1.257,1.257,1.259,1.261,1.261,1.264,1.266,1.266,1.269,1.271,1.271,1.271,1.273,1.273,1.276,1.276,1.276,1.276,1.278,1.276,1.276,1.276,1.276,1.276,1.276,1.276,1.276,1.276,1.276,1.276,1.276,1.276,1.276,1.276,1.278,1.278,1.278,1.278,1.278,1.278,1.278,1.278,1.278,1.278,1.278,1.276,1.276,1.276,1.276,1.276,1.273,1.273,1.271,1.271,1.271,1.271,1.271,1.271,1.271,1.271,1.273,1.273,1.271,1.269,1.269,1.266,1.264,1.261,1.259,1.259,1.259,1.264,1.266,1.271,1.271,1.273,1.276,1.276,1.276,1.276,1.273,1.273,1.273,1.271,1.271,1.271,1.271,1.271,1.271,1.271,1.271,1.271,1.271,1.269,1.269,1.269,1.269,1.269,1.269,1.269,1.269,1.269,1.269,1.271,1.271,1.271,1.271,1.273,1.273,1.273,1.276,1.276,1.278,1.278,1.278,1.281,1.281,1.281,1.281,1.281,1.281,1.281,1.278,1.278,1.276,1.276,1.276,1.273,1.273,1.273,1.273,1.273,1.273,1.273,1.276,1.278,1.278,1.278,1.281,1.281,1.283,1.283,1.283,1.283,1.285,1.285,1.285,1.285,1.285,1.285,1.285,1.285,1.285,1.285,1.285,1.283,1.283,1.281,1.278,1.278,1.278,1.276,1.276,1.276,1.273,1.273,1.273,1.273,1.273,1.276,1.276,1.273,1.273,1.273,1.273,1.273,1.271,1.271,1.269,1.269,1.269,1.269,1.269,1.266,1.266,1.266,1.266,1.269,1.269,1.269,1.269,1.271,1.273,1.273,1.273,1.273,1.273,1.276,1.276,1.276,1.276,1.273,1.273,1.271,1.271,1.271,1.271,1.271,1.271,1.269,1.269,1.271,1.271,1.271,1.273,1.273,1.273,1.276,1.276,1.276,1.276,1.278,1.278,1.278,1.278,1.278,1.278,1.276,1.276,1.276,1.276,1.276,1.276,1.276,1.276,1.276,1.276,1.276,1.276,1.276,1.276,1.276,1.276,1.276,1.276,1.276,1.276,1.276,1.276,1.276,1.276,1.276,1.276,1.273,1.273,1.273,1.273,1.273,1.273,1.273,1.276,1.276,1.276,1.278,1.278,1.278,1.278,1.278,1.278,1.278,1.281,1.281,1.281,1.278,1.278,1.278,1.278,1.278,1.278,1.276,1.276,1.276,1.276,1.276,1.276,1.276,1.276,1.276,1.276,1.276,1.276,1.276,1.276,1.276,1.278,1.278,1.278,1.278,1.278,1.278,1.278,1.278,1.278,1.278,1.276,1.276,1.276,1.276,1.276,1.276,1.273,1.273,1.273,1.273,1.273,1.273,1.273,1.271,1.271,1.271,1.271,1.271,1.269,1.269,1.269,1.269,1.266,1.266,1.266,1.266,1.266,1.266,1.266,1.266,1.266,1.266,1.266,1.266,1.266,1.266,1.266,1.269,1.269,1.269,1.271,1.271,1.271,1.271,1.271,1.271,1.273,1.273,1.273,1.273,1.273,1.273,1.273,1.273,1.273,1.273,1.276,1.276,1.276,1.278,1.281,1.281,1.283,1.283,1.283,1.285,1.285,1.283,1.283,1.281,1.281,1.278,1.278,1.276,1.273,1.273,1.271,1.271,1.271,1.269,1.269,1.269,1.269,1.266,1.266,1.266,1.266,1.266,1.264,1.264,1.264,1.264,1.264,1.264,1.264,1.266,1.266,1.269,1.269,1.273,1.276,1.281,1.283,1.285,1.288,1.29,1.29,1.288,1.285,1.283,1.278,1.273,1.266,1.261,1.259,1.254,1.252,1.252,1.25,1.25,1.25,1.247,1.245,1.243,1.238,1.236,1.231,1.225,1.22,1.212,1.205,1.201,1.194,1.19,1.184,1.18,1.178,1.176,1.174,1.172,1.17,1.168,1.168,1.164,1.162,1.16,1.158,1.154,1.154,1.152,1.15,1.148,1.148,1.146,1.146,1.144,1.142,1.142,1.138,1.138,1.138,1.136,1.136,1.136,1.134,1.132,1.132,1.132,1.134,1.134,1.132,1.134
1.247,1.247,1.247,1.247,1.247,1.247,1.247,1.247,1.247,1.247,1.247,1.247,1.247,1.25,1.25,1.247,1.247,1.247,1.247,1.247,1.247,1.247,1.245,1.245,1.245,1.245,1.245,1.245,1.247,1.247,1.247,1.25,1.25,1.252,1.252,1.252,1.252,1.252,1.254,1.254,1.254,1.252,1.252,1.252,1.252,1.252,1.25,1.25,1.25,1.25,1.25,1.25,1.25,1.25,1.25,1.25,1.252,1.252,1.254,1.254,1.257,1.259,1.259,1.261,1.264,1.264,1.264,1.266,1.266,1.269,1.269,1.269,1.269,1.269,1.269,1.269,1.269,1.269,1.266,1.266,1.266,1.266,1.266,1.266,1.266,1.266,1.269,1.269,1.269,1.269,1.269,1.269,1.269,1.269,1.269,1.269,1.269,1.269,1.266,1.266,1.266,1.266,1.266,1.266,1.264,1.264,1.264,1.261,1.261,1.261,1.261,1.261,1.261,1.264,1.264,1.264,1.261,1.259,1.259,1.254,1.254,1.252,1.25,1.25,1.252,1.257,1.259,1.261,1.264,1.266,1.266,1.269,1.269,1.266,1.264,1.264,1.264,1.261,1.261,1.261,1.261,1.259,1.259,1.259,1.259,1.259,1.259,1.259,1.259,1.259,1.259,1.259,1.259,1.259,1.259,1.259,1.261,1.261,1.261,1.261,1.264,1.264,1.264,1.264,1.264,1.266,1.266,1.269,1.269,1.271,1.271,1.271,1.271,1.271,1.271,1.271,1.271,1.269,1.266,1.266,1.266,1.264,1.264,1.264,1.264,1.264,1.264,1.266,1.266,1.269,1.269,1.271,1.273,1.273,1.273,1.276,1.276,1.276,1.276,1.276,1.278,1.278,1.278,1.278,1.278,1.276,1.276,1.276,1.273,1.273,1.271,1.269,1.269,1.266,1.266,1.266,1.264,1.264,1.264,1.264,1.264,1.264,1.264,1.264,1.264,1.264,1.264,1.264,1.264,1.264,1.261,1.261,1.261,1.261,1.261,1.259,1.259,1.259,1.257,1.257,1.257,1.257,1.259,1.259,1.259,1.261,1.261,1.264,1.264,1.264,1.264,1.264,1.264,1.264,1.261,1.261,1.259,1.259,1.259,1.259,1.259,1.259,1.259,1.259,1.259,1.261,1.261,1.261,1.264,1.264,1.264,1.266,1.266,1.266,1.266,1.266,1.269,1.269,1.269,1.269,1.266,1.266,1.266,1.266,1.266,1.266,1.266,1.266,1.266,1.266,1.266,1.269,1.269,1.269,1.269,1.269,1.269,1.266,1.266,1.266,1.266,1.266,1.266,1.266,1.264,1.264,1.264,1.264,1.264,1.264,1.264,1.264,1.264,1.266,1.266,1.266,1.269,1.269,1.269,1.269,1.269,1.269,1.271,1.271,1.271,1.271,1.271,1.271,1.271,1.269,1.269,1.269,1.269,1.266,1.266,1.266,1.266,1.266,1.266,1.266,1.266,1.266,1.266,1.266,1.266,1.266,1.266,1.266,1.266,1.269,1.269,1.269,1.269,1.269,1.269,1.269,1.269,1.266,1.266,1.266,1.266,1.264,1.264,1.264,1.264,1.264,1.264,1.264,1.264,1.261,1.264,1.261,1.261,1.261,1.261,1.261,1.259,1.259,1.259,1.259,1.259,1.257,1.257,1.257,1.257,1.257,1.257,1.259,1.259,1.257,1.257,1.257,1.257,1.259,1.259,1.259,1.259,1.261,1.261,1.261,1.261,1.261,1.261,1.264,1.264,1.264,1.264,1.261,1.261,1.261,1.261,1.261,1.264,1.264,1.264,1.264,1.264,1.266,1.266,1.269,1.271,1.271,1.273,1.273,1.273,1.273,1.273,1.271,1.269,1.269,1.269,1.266,1.266,1.264,1.264,1.261,1.261,1.261,1.259,1.259,1.259,1.259,1.257,1.257,1.257,1.257,1.257,1.254,1.254,1.257,1.257,1.257,1.257,1.259,1.259,1.261,1.264,1.266,1.271,1.273,1.276,1.278,1.278,1.281,1.281,1.281,1.276,1.273,1.269,1.264,1.259,1.254,1.25,1.247,1.245,1.245,1.245,1.243,1.243,1.241,1.241,1.236,1.234,1.229,1.225,1.22,1.214,1.205,1.199,1.192,1.188,1.182,1.178,1.174,1.172,1.17,1.166,1.166,1.166,1.164,1.162,1.16,1.158,1.156,1.154,1.152,1.15,1.148,1.146,1.144,1.142,1.14,1.14,1.138,1.136,1.136,1.134,1.134,1.132,1.132,1.132,1.132,1.13,1.13,1.13,1.129,1.129,1.13,1.13,1.132
1.238,1.238,1.238,1.238,1.238,1.238,1.238,1.238,1.238,1.238,1.238,1.241,1.241,1.241,1.241,1.241,1.241,1.238,1.238,1.241,1.238,1.238,1.238,1.236,1.236,1.236,1.236,1.238,1.238,1.238,1.238,1.241,1.243,1.243,1.243,1.243,1.245,1.245,1.245,1.245,1.245,1.245,1.245,1.243,1.243,1.243,1.243,1.241,1.241,1.241,1.241,1.241,1.241,1.241,1.241,1.241,1.243,1.243,1.245,1.245,1.247,1.247,1.25,1.252,1.254,1.254,1.257,1.257,1.257,1.259,1.259,1.261,1.261,1.261,1.259,1.259,1.259,1.259,1.257,1.257,1.257,1.257,1.257,1.257,1.257,1.257,1.259,1.259,1.259,1.259,1.259,1.259,1.259,1.259,1.259,1.259,1.259,1.257,1.257,1.257,1.257,1.257,1.254,1.254,1.254,1.254,1.254,1.254,1.254,1.254,1.252,1.252,1.252,1.254,1.254,1.254,1.252,1.25,1.25,1.247,1.245,1.243,1.241,1.241,1.243,1.247,1.25,1.252,1.254,1.257,1.257,1.259,1.259,1.257,1.254,1.254,1.254,1.252,1.252,1.252,1.252,1.25,1.25,1.25,1.25,1.25,1.25,1.25,1.25,1.25,1.25,1.25,1.25,1.25,1.25,1.252,1.252,1.252,1.252,1.254,1.254,1.254,1.254,1.254,1.254,1.254,1.257,1.257,1.259,1.261,1.261,1.261,1.264,1.264,1.264,1.261,1.261,1.261,1.259,1.257,1.257,1.254,1.254,1.254,1.254,1.254,1.257,1.257,1.259,1.259,1.261,1.261,1.264,1.264,1.266,1.266,1.266,1.269,1.269,1.269,1.269,1.269,1.269,1.269,1.269,1.266,1.266,1.266,1.264,1.261,1.261,1.259,1.259,1.257,1.257,1.254,1.254,1.254,1.254,1.254,1.254,1.254,1.254,1.254,1.254,1.254,1.254,1.254,1.254,1.254,1.254,1.252,1.252,1.252,1.252,1.252,1.252,1.25,1.25,1.25,1.25,1.25,1.25,1.25,1.252,1.252,1.252,1.254,1.254,1.252,1.252,1.252,1.252,1.252,1.252,1.25,1.25,1.25,1.25,1.25,1.25,1.25,1.25,1.25,1.25,1.252,1.252,1.254,1.254,1.254,1.257,1.257,1.257,1.257,1.259,1.259,1.259,1.259,1.259,1.259,1.259,1.259,1.259,1.259,1.259,1.259,1.259,1.259,1.259,1.259,1.259,1.259,1.259,1.259,1.259,1.259,1.259,1.259,1.257,1.257,1.257,1.257,1.257,1.254,1.254,1.254,1.254,1.254,1.254,1.254,1.254,1.254,1.254,1.257,1.257,1.259,1.259,1.259,1.261,1.261,1.261,1.261,1.261,1.261,1.261,1.261,1.261,1.261,1.261,1.261,1.259,1.259,1.259,1.257,1.257,1.257,1.257,1.257,1.257,1.257,1.257,1.257,1.257,1.257,1.257,1.257,1.257,1.257,1.257,1.259,1.259,1.259,1.259,1.259,1.259,1.257,1.257,1.257,1.257,1.254,1.254,1.254,1.254,1.254,1.254,1.252,1.252,1.252,1.252,1.252,1.252,1.252,1.252,1.252,1.252,1.252,1.252,1.25,1.25,1.25,1.25,1.25,1.25,1.25,1.25,1.25,1.25,1.25,1.25,1.25,1.25,1.25,1.25,1.25,1.25,1.25,1.25,1.252,1.252,1.252,1.252,1.252,1.252,1.252,1.252,1.254,1.254,1.252,1.252,1.252,1.252,1.252,1.252,1.252,1.252,1.252,1.252,1.252,1.254,1.257,1.257,1.259,1.259,1.259,1.261,1.261,1.261,1.259,1.259,1.257,1.257,1.257,1.254,1.254,1.252,1.252,1.252,1.252,1.25,1.25,1.25,1.25,1.25,1.25,1.247,1.247,1.247,1.247,1.247,1.247,1.247,1.247,1.25,1.252,1.252,1.254,1.257,1.259,1.264,1.266,1.269,1.271,1.271,1.273,1.273,1.271,1.269,1.264,1.259,1.254,1.252,1.247,1.245,1.241,1.241,1.238,1.236,1.236,1.236,1.234,1.234,1.231,1.229,1.225,1.22,1.214,1.207,1.199,1.192,1.188,0,1.176,1.172,1.168,1.166,1.164,1.162,1.16,1.16,1.158,1.158,1.154,1.152,1.15,1.148,1.146,1.144,1.142,1.14,1.138,1.136,1.134,1.134,1.132,1.132,1.13,1.129,1.129,1.129,1.129,1.129,1.127,1.127,1.125,1.125,1.127,1.127,1.127,1.127,1.129
1.229,1.229,1.229,1.229,1.229,1.229,1.229,1.229,1.231,1.231,1.231,1.231,1.231,1.234,1.234,1.234,1.231,1.231,1.231,1.231,1.229,1.229,1.229,1.229,1.229,1.227,1.229,1.229,1.229,1.229,1.229,1.231,1.234,1.234,1.236,1.236,1.236,1.236,1.236,1.236,1.236,1.236,1.236,1.236,1.236,1.234,1.234,1.234,1.234,1.234,1.234,1.234,1.234,1.234,1.234,1.234,1.234,1.236,1.236,1.236,1.238,1.238,1.241,1.243,1.245,1.245,1.247,1.247,1.25,1.25,1.25,1.252,1.252,1.252,1.25,1.25,1.25,1.25,1.247,1.247,1.247,1.247,1.247,1.247,1.247,1.247,1.25,1.25,1.25,1.25,1.25,1.25,1.25,1.25,1.25,1.25,1.25,1.247,1.25,1.247,1.247,1.247,1.247,1.247,1.245,1.245,1.245,1.245,1.245,1.245,1.245,1.245,1.245,1.245,1.245,1.245,1.243,1.241,1.238,1.236,1.234,1.231,1.231,1.231,1.234,1.238,1.241,1.243,1.245,1.247,1.25,1.25,1.25,1.247,1.247,1.245,1.245,1.245,1.243,1.243,1.243,1.243,1.243,1.243,1.241,1.241,1.241,1.241,1.241,1.241,1.241,1.241,1.243,1.243,1.243,1.243,1.243,1.243,1.245,1.245,1.245,1.245,1.245,1.245,1.245,1.245,1.247,1.247,1.25,1.252,1.252,1.252,1.254,1.254,1.254,1.254,1.252,1.252,1.25,1.25,1.247,1.247,1.245,1.245,1.247,1.247,1.247,1.25,1.25,1.252,1.252,1.254,1.257,1.257,1.257,1.257,1.259,1.259,1.259,1.259,1.259,1.259,1.259,1.259,1.257,1.257,1.257,1.254,1.252,1.252,1.25,1.25,1.247,1.247,1.245,1.245,1.245,1.245,1.245,1.245,1.245,1.245,1.245,1.245,1.245,1.245,1.245,1.245,1.245,1.245,1.245,1.245,1.245,1.245,1.243,1.243,1.243,1.243,1.241,1.241,1.243,1.243,1.243,1.241,1.243,1.243,1.243,1.245,1.245,1.243,1.243,1.243,1.243,1.243,1.241,1.241,1.241,1.238,1.238,1.238,1.238,1.238,1.241,1.241,1.241,1.243,1.243,1.243,1.245,1.245,1.245,1.247,1.247,1.247,1.247,1.25,1.25,1.25,1.25,1.25,1.25,1.25,1.25,1.25,1.252,1.252,1.252,1.252,1.252,1.252,1.252,1.252,1.252,1.252,1.25,1.252,1.252,1.25,1.25,1.247,1.247,1.247,1.247,1.247,1.245,1.245,1.245,1.245,1.245,1.245,1.245,1.245,1.247,1.247,1.25,1.25,1.25,1.252,1.252,1.252,1.252,1.252,1.252,1.252,1.252,1.252,1.252,1.252,1.252,1.252,1.25,1.25,1.25,1.25,1.25,1.25,1.247,1.247,1.247,1.247,1.247,1.247,1.245,1.245,1.245,1.247,1.247,1.247,1.247,1.247,1.247,1.247,1.247,1.247,1.247,1.247,1.247,1.245,1.245,1.245,1.245,1.243,1.243,1.243,1.243,1.243,1.243,1.243,1.243,1.243,1.243,1.243,1.243,1.243,1.243,1.243,1.241,1.241,1.241,1.241,1.241,1.241,1.241,1.241,1.241,1.241,1.241,1.241,1.241,1.241,1.241,1.241,1.241,1.241,1.241,1.241,1.241,1.241,1.243,1.243,1.243,1.243,1.243,1.243,1.243,1.243,1.243,1.243,1.243,1.241,1.241,1.241,1.241,1.241,1.241,1.241,1.241,1.243,1.243,1.245,1.245,1.247,1.247,1.247,1.25,1.25,1.25,1.247,1.247,1.247,1.247,1.245,1.245,1.243,1.243,1.243,1.243,1.243,1.241,1.241,1.241,1.241,1.241,1.241,1.241,1.241,1.238,1.238,1.238,1.241,1.241,1.241,1.243,1.245,1.245,1.247,1.25,1.252,1.257,1.259,1.259,1.261,1.261,1.264,1.261,1.261,1.259,1.254,1.252,1.247,1.243,1.241,1.238,1.234,1.234,1.231,1.229,1.229,1.227,1.227,1.225,1.225,1.223,1.218,1.214,1.209,1.203,0,0,1.182,1.176,1.17,1.166,1.162,1.16,1.158,1.156,1.154,1.154,1.152,1.152,1.15,1.146,1.144,1.142,1.142,1.138,1.136,1.134,1.13,1.129,1.129,1.127,1.127,1.125,1.125,1.123,1.123,1.123,1.123,1.123,1.121,1.119,1.119,1.119,1.119,1.119,1.121,1.121,1.123
1.22,1.22,1.22,1.22,1.22,1.22,1.22,1.223,1.223,1.223,1.223,1.225,1.223,1.223,1.223,1.223,1.223,1.223,1.22,1.22,1.22,1.22,1.22,1.22,1.218,1.218,1.218,1.22,1.22,1.22,1.22,1.223,1.225,1.225,1.227,1.227,1.227,1.227,1.229,1.229,1.229,1.229,1.229,1.227,1.227,1.227,1.227,1.225,1.225,1.225,1.225,1.225,1.225,1.225,1.225,1.225,1.227,1.227,1.227,1.229,1.229,1.231,1.231,1.234,1.236,1.236,1.238,1.238,1.238,1.241,1.241,1.243,1.243,1.243,1.241,1.241,1.241,1.241,1.238,1.238,1.238,1.238,1.238,1.238,1.238,1.238,1.241,1.241,1.241,1.241,1.241,1.241,1.241,1.241,1.241,1.241,1.241,1.238,1.238,1.241,1.238,1.238,1.238,1.238,1.238,1.238,1.236,1.236,1.236,1.236,1.236,1.236,1.236,1.238,1.238,1.236,1.236,1.231,1.229,1.227,1.225,1.223,1.223,1.223,1.225,1.229,1.231,1.234,1.238,1.241,1.241,1.243,1.241,1.238,1.238,1.238,1.238,1.236,1.236,1.236,1.236,1.236,1.236,1.234,1.234,1.234,1.234,1.234,1.234,1.234,1.234,1.234,1.234,1.234,1.236,1.236,1.236,1.236,1.236,1.236,1.236,1.236,1.236,1.236,1.236,1.236,1.238,1.238,1.241,1.243,1.243,1.243,1.245,1.245,1.245,1.245,1.243,1.243,1.243,1.241,1.241,1.238,1.238,1.238,1.238,1.238,1.241,1.241,1.241,1.243,1.245,1.247,1.247,1.247,1.247,1.247,1.25,1.25,1.25,1.25,1.25,1.25,1.25,1.25,1.247,1.247,1.247,1.245,1.243,1.243,1.241,1.238,1.238,1.236,1.236,1.236,1.236,1.236,1.236,1.236,1.236,1.236,1.236,1.236,1.236,1.236,1.236,1.236,1.236,1.236,1.236,1.236,1.236,1.236,1.236,1.236,1.234,1.234,1.234,1.234,1.234,1.234,1.234,1.234,1.234,1.234,1.236,1.236,1.236,1.234,1.234,1.234,1.234,1.234,1.231,1.231,1.231,1.229,1.229,1.229,1.229,1.229,1.231,1.231,1.234,1.234,1.234,1.236,1.236,1.236,1.238,1.238,1.238,1.241,1.241,1.241,1.241,1.241,1.241,1.241,1.241,1.241,1.241,1.243,1.243,1.243,1.243,1.243,1.243,1.245,1.245,1.245,1.245,1.243,1.243,1.243,1.243,1.243,1.241,1.241,1.238,1.238,1.238,1.238,1.236,1.236,1.236,1.236,1.236,1.236,1.236,1.236,1.238,1.238,1.241,1.241,1.243,1.243,1.243,1.245,1.245,1.243,1.243,1.243,1.245,1.245,1.243,1.243,1.243,1.243,1.241,1.241,1.241,1.238,1.238,1.241,1.241,1.238,1.238,1.238,1.238,1.238,1.238,1.238,1.238,1.236,1.238,1.238,1.238,1.238,1.238,1.238,1.238,1.238,1.238,1.238,1.236,1.236,1.236,1.236,1.236,1.234,1.234,1.234,1.234,1.234,1.234,1.234,1.234,1.234,1.234,1.234,1.234,1.234,1.234,1.234,1.234,1.234,1.234,1.234,1.231,1.231,1.231,1.231,1.231,1.231,1.231,1.231,1.231,1.231,1.231,1.231,1.231,1.231,1.231,1.231,1.231,1.234,1.234,1.234,1.234,1.234,1.234,1.234,1.234,1.234,1.234,1.234,1.231,1.231,1.231,1.231,1.231,1.231,1.231,1.231,1.231,1.231,1.234,1.234,1.236,1.236,1.238,1.238,1.238,1.238,1.238,1.236,1.236,1.236,1.236,1.234,1.234,1.234,1.234,1.234,1.234,1.234,1.231,1.231,1.231,1.231,1.231,1.231,1.231,1.231,1.231,1.231,1.231,1.231,1.231,1.234,1.234,1.236,1.238,1.241,1.243,1.245,1.247,1.25,1.252,1.252,1.252,1.254,1.252,1.25,1.247,1.245,1.241,1.238,1.236,1.234,1.231,1.227,1.227,1.225,1.223,1.223,1.22,1.22,1.218,1.216,1.214,1.212,0,0,0,0,0,0,0,0,0,1.156,1.152,1.15,1.15,1.15,1.148,1.148,1.146,1.146,1.142,1.14,1.138,1.136,1.134,1.13,1.129,1.125,1.125,1.121,1.121,1.119,1.119,1.117,1.117,1.117,1.117,1.117,1.115,1.115,1.115,1.114,1.114,1.114,1.114,1.115,1.115,1.117
1.212,1.212,1.212,1.212,1.212,1.212,1.214,1.214,1.214,1.214,1.214,1.214,1.214,1.214,1.212,1.212,1.212,1.212,1.212,1.209,1.209,1.209,1.209,1.209,1.209,1.209,1.209,1.209,1.212,1.212,1.212,1.214,1.216,1.216,1.218,1.218,1.218,1.22,1.22,1.22,1.22,1.22,1.22,1.22,1.22,1.22,1.218,1.218,1.218,1.218,1.216,1.218,1.218,1.216,1.216,1.218,1.218,1.218,1.218,1.22,1.22,1.223,1.223,1.225,1.227,1.227,1.229,1.229,1.229,1.231,1.231,1.231,1.231,1.231,1.231,1.231,1.231,1.229,1.229,1.229,1.229,1.229,1.229,1.229,1.229,1.229,1.229,1.231,1.231,1.231,1.229,1.229,1.231,1.231,1.231,1.229,1.229,1.231,1.229,1.229,1.229,1.229,1.229,1.229,1.229,1.229,1.229,1.227,1.227,1.227,1.227,1.227,1.229,1.229,1.229,1.229,1.227,1.223,1.22,1.218,1.216,1.214,1.214,1.214,1.216,1.22,1.223,1.227,1.229,1.231,1.231,1.234,1.231,1.231,1.229,1.229,1.229,1.229,1.229,1.229,1.229,1.227,1.227,1.227,1.227,1.227,1.227,1.227,1.227,1.227,1.227,1.227,1.227,1.227,1.227,1.227,1.229,1.229,1.229,1.229,1.229,1.229,1.229,1.227,1.227,1.227,1.229,1.229,1.229,1.231,1.234,1.234,1.236,1.236,1.236,1.236,1.236,1.236,1.234,1.234,1.231,1.231,1.231,1.231,1.231,1.231,1.231,1.231,1.234,1.236,1.236,1.238,1.238,1.238,1.241,1.241,1.241,1.241,1.241,1.241,1.241,1.241,1.241,1.241,1.238,1.238,1.236,1.236,1.234,1.231,1.231,1.229,1.229,1.227,1.227,1.225,1.225,1.227,1.227,1.227,1.227,1.227,1.227,1.227,1.229,1.229,1.229,1.229,1.229,1.229,1.229,1.227,1.229,1.229,1.227,1.227,1.227,1.227,1.225,1.227,1.227,1.227,1.227,1.227,1.227,1.227,1.227,1.227,1.227,1.227,1.225,1.225,1.225,1.225,1.225,1.223,1.223,1.223,1.223,1.223,1.223,1.223,1.223,1.225,1.225,1.227,1.227,1.227,1.229,1.229,1.229,1.231,1.231,1.231,1.231,1.231,1.231,1.231,1.231,1.231,1.231,1.234,1.234,1.234,1.234,1.236,1.236,1.236,1.236,1.236,1.238,1.236,1.236,1.236,1.236,1.236,1.236,1.234,1.234,1.231,1.231,1.231,1.229,1.229,1.227,1.227,1.227,1.227,1.227,1.227,1.227,1.227,1.229,1.229,1.231,1.231,1.234,1.234,1.234,1.234,1.236,1.234,1.236,1.236,1.236,1.236,1.236,1.234,1.234,1.234,1.234,1.231,1.231,1.229,1.229,1.229,1.229,1.229,1.229,1.229,1.229,1.229,1.227,1.227,1.227,1.227,1.227,1.227,1.227,1.227,1.229,1.229,1.229,1.229,1.229,1.227,1.227,1.227,1.227,1.227,1.227,1.225,1.225,1.225,1.225,1.225,1.225,1.225,1.225,1.225,1.227,1.227,1.227,1.225,1.225,1.225,1.225,1.225,1.225,1.225,1.225,1.225,1.225,1.225,1.225,1.225,1.223,1.223,1.223,1.223,1.223,1.223,1.225,1.223,1.223,1.225,1.225,1.225,1.225,1.225,1.225,1.225,1.225,1.225,1.225,1.225,1.225,1.225,1.223,1.223,1.223,1.223,1.223,1.22,1.22,1.22,1.223,1.223,1.223,1.225,1.225,1.225,1.227,1.227,1.227,1.227,1.227,1.227,1.225,1.225,1.225,1.225,1.225,1.225,1.225,1.225,1.225,1.225,1.225,1.225,1.223,1.225,1.225,1.225,1.223,1.223,1.223,1.223,1.223,1.225,1.225,1.225,1.227,1.229,1.231,1.234,1.236,1.238,1.241,1.243,1.243,1.243,1.243,1.243,1.243,1.241,1.238,1.236,1.231,1.231,1.227,1.227,1.225,1.223,1.22,1.218,1.218,1.216,1.214,1.212,1.207,1.203,1.203,0,0,0,0,0,0,0,0,0,0,0,0,0,0,0,1.146,1.146,1.146,1.144,1.14,1.14,1.138,1.132,1.13,1.127,1.125,1.121,1.119,1.117,1.117,1.114,1.114,1.112,1.112,1.112,1.112,1.112,1.112,1.11,1.108,1.108,1.106,1.108,1.108,1.11,1.11,1.112
1.201,1.203,1.203,1.203,1.203,1.203,1.205,1.205,1.205,1.205,1.205,1.205,1.203,1.203,1.203,1.201,1.201,1.201,1.201,1.199,1.199,1.199,1.199,1.199,1.199,1.199,1.201,1.201,1.201,1.203,1.203,1.205,1.207,1.209,1.209,1.209,1.209,1.212,1.212,1.212,1.212,1.212,1.209,1.209,1.209,1.209,1.209,1.209,1.209,1.209,1.209,1.209,1.209,1.209,1.209,1.209,1.209,1.209,1.209,1.212,1.212,1.214,1.214,1.216,1.216,1.216,1.216,1.218,1.218,1.218,1.22,1.22,1.22,1.22,1.22,1.22,1.22,1.218,1.218,1.218,1.218,1.218,1.218,1.218,1.22,1.22,1.22,1.22,1.22,1.22,1.218,1.22,1.22,1.22,1.22,1.22,1.22,1.22,1.22,1.22,1.22,1.22,1.22,1.22,1.22,1.22,1.22,1.22,1.22,1.22,1.22,1.22,1.22,1.22,1.22,1.22,1.216,1.214,1.212,1.209,1.207,1.205,1.205,1.205,1.207,1.212,1.216,1.218,1.22,1.223,1.225,1.225,1.225,1.223,1.223,1.223,1.223,1.22,1.22,1.22,1.22,1.22,1.22,1.22,1.22,1.22,1.22,1.22,1.22,1.22,1.22,1.22,1.22,1.22,1.22,1.22,1.22,1.22,1.22,1.22,1.22,1.22,1.22,1.218,1.218,1.218,1.218,1.218,1.22,1.22,1.223,1.225,1.225,1.227,1.227,1.227,1.227,1.227,1.225,1.225,1.225,1.223,1.223,1.223,1.223,1.223,1.223,1.225,1.225,1.227,1.229,1.229,1.231,1.231,1.231,1.231,1.231,1.231,1.231,1.231,1.231,1.231,1.231,1.231,1.229,1.229,1.227,1.227,1.225,1.223,1.223,1.22,1.218,1.218,1.216,1.216,1.216,1.216,1.216,1.216,1.216,1.218,1.218,1.218,1.22,1.22,1.22,1.22,1.22,1.22,1.22,1.22,1.22,1.22,1.22,1.22,1.218,1.218,1.218,1.218,1.218,1.218,1.218,1.218,1.218,1.218,1.218,1.22,1.22,1.218,1.218,1.216,1.216,1.216,1.216,1.214,1.214,1.214,1.214,1.214,1.214,1.214,1.216,1.216,1.218,1.218,1.218,1.22,1.22,1.22,1.223,1.223,1.223,1.223,1.223,1.223,1.223,1.223,1.223,1.223,1.223,1.223,1.225,1.225,1.225,1.225,1.227,1.227,1.227,1.227,1.227,1.227,1.227,1.227,1.227,1.227,1.227,1.227,1.225,1.223,1.223,1.223,1.22,1.22,1.218,1.218,1.218,1.218,1.218,1.218,1.218,1.218,1.22,1.22,1.223,1.223,1.223,1.225,1.225,1.225,1.225,1.227,1.227,1.225,1.225,1.225,1.225,1.225,1.225,1.223,1.223,1.223,1.223,1.223,1.22,1.22,1.22,1.22,1.22,1.22,1.22,1.218,1.218,1.218,1.218,1.218,1.216,1.216,1.216,1.216,1.216,1.216,1.216,1.216,1.216,1.216,1.216,1.216,1.218,1.218,1.216,1.216,1.216,1.216,1.216,1.216,1.216,1.216,1.218,1.218,1.218,1.218,1.218,1.218,1.218,1.218,1.218,1.218,1.218,1.218,1.216,1.216,1.216,1.216,1.216,1.216,1.216,1.216,1.216,1.216,1.216,1.216,1.216,1.216,1.216,1.216,1.216,1.216,1.216,1.216,1.216,1.216,1.216,1.216,1.216,1.216,1.216,1.216,1.214,1.214,1.214,1.214,1.214,1.212,1.212,1.212,1.212,1.214,1.214,1.214,1.214,1.214,1.214,1.216,1.216,1.216,1.216,1.214,1.214,1.214,1.216,1.216,1.216,1.216,1.216,1.216,1.216,1.216,1.216,1.216,1.216,1.216,1.216,1.216,1.216,1.216,1.214,1.214,1.214,1.216,1.216,1.218,1.218,1.22,1.223,1.225,1.227,1.229,1.231,1.234,1.234,1.234,1.234,1.231,1.231,1.229,1.227,1.225,1.223,1.22,1.218,1.216,1.216,1.216,1.212,1.212,1.212,1.209,1.205,1.203,1.201,1.197,1.194,0,0,0,0,0,0,0,0,0,0,0,0,0,0,0,0,1.148,1.148,1.146,1.142,1.14,1.138,1.134,1.13,1.127,1.123,1.119,1.117,1.114,1.112,1.11,1.11,1.108,1.106,1.106,1.106,1.106,1.106,1.105,1.105,1.105,1.103,1.103,1.105,1.106,1.106,1.108
1.192,1.192,1.192,1.192,1.194,1.194,1.194,1.194,1.194,1.194,1.197,1.194,1.192,1.192,1.192,1.192,1.19,1.19,1.19,1.188,1.188,1.188,1.188,1.188,1.19,1.19,1.19,1.19,1.192,1.194,1.194,1.197,1.199,1.199,1.201,1.201,1.201,1.201,1.201,1.203,1.203,1.203,1.203,1.201,1.201,1.201,1.201,1.201,1.201,1.201,1.201,1.201,1.201,1.201,1.201,1.201,1.201,1.201,1.201,1.201,1.203,1.203,1.203,1.205,1.205,1.205,1.207,1.207,1.207,1.207,1.207,1.207,1.209,1.209,1.209,1.209,1.209,1.207,1.207,1.207,1.209,1.209,1.209,1.209,1.209,1.209,1.209,1.212,1.209,1.209,1.209,1.209,1.209,1.209,1.209,1.209,1.209,1.209,1.212,1.209,1.212,1.212,1.212,1.212,1.212,1.212,1.212,1.212,1.212,1.212,1.212,1.212,1.212,1.214,1.212,1.209,1.207,1.203,1.203,1.199,1.197,1.197,1.197,1.197,1.201,1.205,1.207,1.209,1.214,1.216,1.216,1.218,1.216,1.216,1.214,1.214,1.214,1.214,1.214,1.214,1.214,1.214,1.214,1.214,1.214,1.214,1.214,1.214,1.214,1.214,1.214,1.214,1.214,1.214,1.214,1.214,1.214,1.216,1.214,1.214,1.214,1.212,1.212,1.209,1.209,1.209,1.209,1.209,1.209,1.212,1.212,1.214,1.214,1.216,1.216,1.216,1.216,1.216,1.216,1.216,1.216,1.214,1.214,1.214,1.216,1.216,1.216,1.216,1.216,1.218,1.22,1.22,1.223,1.223,1.223,1.223,1.223,1.225,1.223,1.223,1.223,1.223,1.223,1.22,1.22,1.218,1.218,1.216,1.216,1.214,1.212,1.209,1.209,1.207,1.207,1.205,1.205,1.207,1.205,1.205,1.207,1.207,1.209,1.209,1.212,1.212,1.212,1.212,1.212,1.214,1.214,1.214,1.214,1.214,1.214,1.212,1.212,1.212,1.212,1.212,1.212,1.212,1.212,1.212,1.212,1.212,1.212,1.212,1.212,1.212,1.209,1.209,1.207,1.207,1.205,1.205,1.205,1.205,1.205,1.205,1.207,1.207,1.207,1.209,1.209,1.209,1.212,1.212,1.214,1.214,1.214,1.214,1.216,1.216,1.214,1.214,1.214,1.214,1.214,1.214,1.214,1.214,1.214,1.216,1.216,1.216,1.218,1.218,1.218,1.218,1.22,1.22,1.22,1.218,1.218,1.218,1.218,1.216,1.216,1.216,1.214,1.214,1.212,1.209,1.209,1.209,1.209,1.209,1.209,1.209,1.209,1.209,1.209,1.212,1.212,1.214,1.214,1.214,1.216,1.216,1.216,1.214,1.216,1.216,1.216,1.214,1.214,1.214,1.214,1.214,1.214,1.214,1.214,1.212,1.212,1.212,1.212,1.212,1.212,1.209,1.209,1.209,1.209,1.209,1.209,1.207,1.205,1.205,1.205,1.205,1.205,1.207,1.207,1.207,1.207,1.207,1.207,1.207,1.207,1.207,1.207,1.207,1.207,1.207,1.207,1.207,1.207,1.207,1.209,1.209,1.209,1.209,1.209,1.209,1.209,1.209,1.209,1.209,1.207,1.207,1.207,1.207,1.209,1.209,1.207,1.207,1.207,1.207,1.207,1.207,1.207,1.209,1.209,1.209,1.209,1.207,1.207,1.207,1.207,1.207,1.207,1.207,1.207,1.207,1.207,1.207,1.207,1.205,1.205,1.205,1.205,1.205,1.205,1.203,1.203,1.203,1.203,1.203,1.203,1.205,1.205,1.205,1.203,1.205,1.205,1.205,1.203,1.203,1.205,1.203,1.205,1.205,1.205,1.205,1.207,1.207,1.207,1.207,1.209,1.209,1.209,1.207,1.207,1.207,1.207,1.207,1.207,1.207,1.205,1.207,1.207,1.207,1.209,1.212,1.214,1.216,1.218,1.218,1.223,1.225,1.227,1.227,1.227,1.225,1.225,1.223,1.218,1.216,1.214,1.214,1.209,1.209,1.209,1.207,1.205,1.205,1.203,1.203,1.199,1.197,1.192,1.188,1.188,0,0,0,0,0,0,0,0,0,0,0,0,0,0,0,0,0,1.152,1.15,1.148,1.146,1.142,1.138,1.132,1.129,1.123,1.119,1.117,1.114,1.112,1.108,1.106,1.106,1.105,1.105,1.103,1.103,1.101,1.101,1.101,1.101,1.099,1.101,1.103,1.103,1.103,1.105
1.184,1.184,1.184,1.184,1.184,1.186,1.186,1.186,1.186,1.186,1.186,1.184,1.184,1.184,1.182,1.182,1.182,1.182,1.18,1.18,1.18,1.18,1.18,1.18,1.18,1.18,1.182,1.182,1.184,1.184,1.186,1.188,1.19,1.19,1.192,1.192,1.192,1.194,1.194,1.194,1.194,1.194,1.194,1.194,1.192,1.192,1.192,1.192,1.192,1.192,1.192,1.192,1.192,1.192,1.192,1.192,1.192,1.192,1.192,1.192,1.192,1.192,1.192,1.192,1.194,1.194,1.194,1.194,1.194,1.197,1.197,1.197,1.197,1.197,1.197,1.199,1.197,1.197,1.197,1.197,1.199,1.199,1.199,1.199,1.199,1.199,1.199,1.199,1.199,1.199,1.199,1.199,1.199,1.199,1.199,1.199,1.199,1.199,1.201,1.201,1.201,1.201,1.203,1.203,1.203,1.203,1.203,1.205,1.205,1.205,1.205,1.205,1.205,1.205,1.203,1.201,1.199,1.194,1.19,1.188,1.186,1.186,1.186,1.188,1.19,1.194,1.199,1.201,1.205,1.207,1.207,1.209,1.207,1.207,1.205,1.205,1.205,1.205,1.205,1.205,1.205,1.205,1.205,1.205,1.205,1.207,1.207,1.207,1.207,1.207,1.207,1.207,1.207,1.207,1.207,1.205,1.205,1.205,1.205,1.205,1.205,1.205,1.203,1.203,1.201,1.201,1.201,1.201,1.201,1.201,1.201,1.203,1.203,1.205,1.205,1.205,1.207,1.207,1.207,1.207,1.205,1.205,1.205,1.205,1.207,1.207,1.207,1.207,1.207,1.209,1.209,1.212,1.212,1.212,1.212,1.212,1.214,1.214,1.214,1.212,1.212,1.212,1.212,1.212,1.209,1.209,1.207,1.207,1.205,1.203,1.201,1.201,1.199,1.199,1.197,1.197,1.197,1.197,1.197,1.197,1.199,1.199,1.199,1.201,1.201,1.203,1.203,1.203,1.205,1.205,1.205,1.205,1.205,1.205,1.205,1.205,1.205,1.205,1.203,1.203,1.203,1.205,1.203,1.203,1.203,1.203,1.203,1.203,1.203,1.203,1.201,1.201,1.201,1.199,1.199,1.199,1.197,1.197,1.197,1.197,1.199,1.199,1.199,1.201,1.201,1.203,1.203,1.205,1.205,1.205,1.207,1.207,1.207,1.207,1.205,1.205,1.205,1.205,1.205,1.205,1.205,1.205,1.205,1.205,1.205,1.207,1.207,1.207,1.207,1.209,1.209,1.209,1.209,1.209,1.209,1.209,1.209,1.209,1.207,1.207,1.205,1.205,1.203,1.203,1.201,1.201,1.201,1.201,1.201,1.201,1.201,1.203,1.203,1.203,1.203,1.203,1.205,1.205,1.205,1.205,1.205,1.205,1.205,1.205,1.205,1.205,1.205,1.203,1.203,1.205,1.205,1.205,1.203,1.203,1.203,1.203,1.203,1.203,1.201,1.201,1.201,1.199,1.199,1.199,1.199,1.197,1.197,1.197,1.197,1.197,1.197,1.197,1.197,1.197,1.197,1.199,1.199,1.199,1.199,1.199,1.199,1.199,1.199,1.199,1.199,1.199,1.199,1.199,1.201,1.201,1.201,1.201,1.201,1.199,1.199,1.199,1.199,1.199,1.199,1.199,1.199,1.199,1.199,1.199,1.201,1.201,1.201,1.201,1.201,1.201,1.201,1.201,1.201,1.201,1.201,1.201,1.199,1.199,1.199,1.199,1.199,1.199,1.199,1.199,1.197,1.197,1.197,1.197,1.197,1.197,1.197,1.197,1.194,1.197,1.197,1.197,1.194,1.194,1.194,1.194,1.194,1.194,1.194,1.194,1.194,1.194,1.194,1.194,1.192,1.194,1.194,1.194,1.197,1.197,1.197,1.199,1.199,1.201,1.201,1.201,1.201,1.201,1.201,1.201,1.201,1.199,1.199,1.199,1.197,1.197,1.199,1.199,1.201,1.201,1.203,1.205,1.207,1.212,1.214,1.216,1.216,1.216,1.216,1.216,1.214,1.212,1.209,1.207,1.205,1.203,1.201,1.201,1.201,1.201,1.199,1.197,1.197,1.194,1.192,1.19,1.186,1.184,1.18,1.18,0,0,0,0,0,0,0,0,0,0,0,0,0,0,0,0,1.156,1.152,1.152,1.15,1.148,1.142,1.138,1.132,1.127,1.123,1.119,1.115,1.114,1.11,1.108,1.106,1.105,1.103,1.103,1.101,1.099,1.099,1.099,1.099,1.099,1.101,1.099,1.101,1.101,1.103
1.174,1.174,1.174,1.176,1.176,1.176,1.178,1.176,1.176,1.176,1.176,1.176,1.174,1.174,1.174,1.172,1.172,1.172,1.172,1.17,1.17,1.17,1.17,1.17,1.172,1.172,1.172,1.174,1.176,1.178,1.178,1.18,1.182,1.182,1.184,1.184,1.186,1.186,1.186,1.186,1.186,1.186,1.186,1.186,1.186,1.184,1.184,1.184,1.184,1.184,1.184,1.184,1.184,1.184,1.184,1.184,1.184,1.184,1.182,1.182,1.184,1.182,1.182,1.184,1.184,1.184,1.184,1.184,1.184,1.184,1.184,1.184,1.186,1.186,1.186,1.186,1.186,1.186,1.186,1.188,1.188,1.188,1.188,1.188,1.188,1.188,1.19,1.19,1.19,1.188,1.186,1.186,1.188,1.188,1.188,1.188,1.188,1.188,1.19,1.192,1.192,1.192,1.192,1.194,1.194,1.197,1.197,1.197,1.197,1.199,1.199,1.199,1.197,1.197,1.197,1.192,1.19,1.186,1.182,1.18,1.178,1.178,1.178,1.18,1.184,1.188,1.19,1.194,1.197,1.199,1.199,1.201,1.199,1.199,1.199,1.199,1.199,1.199,1.199,1.199,1.199,1.199,1.199,1.199,1.199,1.199,1.199,1.197,1.197,1.199,1.199,1.199,1.199,1.199,1.199,1.199,1.199,1.199,1.199,1.199,1.197,1.197,1.194,1.194,1.192,1.192,1.192,1.19,1.192,1.192,1.192,1.192,1.194,1.194,1.197,1.197,1.197,1.197,1.197,1.197,1.197,1.199,1.199,1.199,1.199,1.199,1.199,1.199,1.199,1.201,1.201,1.201,1.203,1.203,1.203,1.203,1.203,1.203,1.203,1.203,1.203,1.203,1.201,1.201,1.199,1.199,1.197,1.197,1.194,1.194,1.192,1.19,1.19,1.188,1.188,1.188,1.188,1.188,1.188,1.188,1.188,1.19,1.19,1.192,1.192,1.194,1.194,1.197,1.197,1.197,1.197,1.197,1.199,1.199,1.199,1.197,1.197,1.197,1.197,1.197,1.197,1.197,1.197,1.197,1.197,1.197,1.197,1.197,1.194,1.194,1.192,1.192,1.192,1.19,1.19,1.19,1.188,1.188,1.188,1.19,1.19,1.19,1.192,1.192,1.194,1.194,1.194,1.197,1.197,1.197,1.199,1.197,1.197,1.197,1.197,1.197,1.197,1.197,1.194,1.194,1.194,1.194,1.194,1.197,1.197,1.197,1.197,1.199,1.199,1.201,1.201,1.201,1.201,1.201,1.203,1.201,1.201,1.201,1.199,1.199,1.197,1.197,1.194,1.194,1.192,1.192,1.192,1.192,1.192,1.192,1.192,1.192,1.194,1.194,1.194,1.194,1.194,1.197,1.197,1.197,1.197,1.194,1.194,1.194,1.194,1.194,1.194,1.194,1.194,1.194,1.194,1.194,1.194,1.194,1.194,1.194,1.192,1.192,1.192,1.19,1.19,1.19,1.19,1.188,1.188,1.186,1.186,1.186,1.186,1.186,1.186,1.186,1.186,1.188,1.188,1.19,1.19,1.19,1.19,1.192,1.192,1.192,1.192,1.192,1.19,1.19,1.19,1.19,1.19,1.19,1.19,1.19,1.19,1.19,1.19,1.19,1.19,1.19,1.19,1.19,1.19,1.19,1.19,1.19,1.192,1.192,1.192,1.192,1.192,1.192,1.192,1.192,1.192,1.192,1.192,1.192,1.19,1.19,1.19,1.19,1.19,1.19,1.19,1.19,1.19,1.19,1.19,1.19,1.188,1.188,1.188,1.188,1.188,1.186,1.186,1.186,1.186,1.186,1.186,1.186,1.186,1.186,1.186,1.184,1.184,1.186,1.184,1.184,1.184,1.186,1.186,1.188,1.188,1.188,1.19,1.19,1.19,1.192,1.192,1.192,1.192,1.192,1.192,1.192,1.19,1.19,1.19,1.19,1.19,1.188,1.188,1.188,1.19,1.19,1.192,1.194,1.194,1.199,1.201,1.203,1.203,1.203,1.203,1.203,1.201,1.201,1.199,1.197,1.194,1.194,1.192,1.192,1.19,1.19,1.19,1.19,1.188,1.188,1.184,1.182,1.178,1.176,1.174,1.174,1.172,1.168,0,0,0,0,0,0,0,0,0,0,0,0,0,0,1.16,1.156,1.156,1.152,1.15,1.146,1.142,1.136,1.13,1.127,1.125,1.119,1.117,1.114,1.112,1.108,1.106,1.105,1.103,1.101,1.099,1.099,1.097,1.099,1.097,1.097,1.099,1.101,1.103,1.103
1.166,1.166,1.166,1.166,1.168,1.168,1.168,1.168,1.168,1.168,1.168,1.166,1.166,1.166,1.164,1.164,1.164,1.164,1.162,1.162,1.162,1.162,1.162,1.162,1.162,1.164,1.164,1.166,1.168,1.17,1.17,1.172,1.174,1.174,1.176,1.176,1.178,1.178,1.178,1.18,1.18,1.178,1.178,1.176,1.176,1.176,1.176,1.176,1.176,1.176,1.176,1.176,1.176,1.176,1.176,1.176,1.176,1.176,1.174,1.174,1.174,1.174,1.174,1.174,1.174,1.174,1.176,1.176,1.174,1.174,1.174,1.174,1.176,1.176,1.176,1.176,1.176,1.176,1.176,1.176,1.178,1.178,1.178,1.178,1.178,1.178,1.178,1.178,1.178,1.178,1.178,1.178,1.18,1.178,1.178,1.178,1.178,1.18,1.18,1.182,1.182,1.182,1.184,1.184,1.186,1.186,1.188,1.188,1.188,1.19,1.188,1.188,1.188,1.188,1.186,1.184,1.18,1.176,1.176,1.174,1.172,1.172,1.172,1.172,1.176,1.18,1.182,1.184,1.188,1.19,1.19,1.192,1.19,1.19,1.188,1.19,1.19,1.19,1.19,1.19,1.19,1.188,1.188,1.188,1.19,1.188,1.188,1.188,1.188,1.188,1.19,1.19,1.19,1.19,1.19,1.19,1.19,1.19,1.19,1.19,1.188,1.188,1.186,1.186,1.184,1.184,1.182,1.182,1.182,1.184,1.184,1.184,1.184,1.186,1.186,1.188,1.188,1.188,1.188,1.188,1.188,1.188,1.19,1.19,1.19,1.19,1.19,1.19,1.19,1.192,1.192,1.192,1.192,1.194,1.194,1.194,1.194,1.194,1.194,1.194,1.194,1.192,1.192,1.19,1.19,1.188,1.188,1.186,1.186,1.184,1.184,1.182,1.182,1.18,1.18,1.18,1.18,1.18,1.18,1.18,1.182,1.182,1.184,1.184,1.184,1.186,1.186,1.188,1.188,1.188,1.188,1.19,1.19,1.19,1.19,1.19,1.19,1.19,1.19,1.188,1.188,1.188,1.188,1.188,1.188,1.188,1.188,1.188,1.188,1.186,1.186,1.186,1.184,1.184,1.182,1.182,1.182,1.182,1.182,1.182,1.182,1.182,1.184,1.184,1.186,1.186,1.186,1.188,1.188,1.188,1.188,1.188,1.188,1.188,1.188,1.188,1.188,1.186,1.186,1.186,1.186,1.186,1.186,1.186,1.186,1.188,1.188,1.188,1.188,1.19,1.19,1.19,1.192,1.192,1.192,1.194,1.192,1.192,1.19,1.19,1.188,1.188,1.186,1.186,1.186,1.184,1.184,1.184,1.184,1.184,1.184,1.186,1.186,1.186,1.186,1.186,1.186,1.186,1.186,1.186,1.186,1.186,1.186,1.186,1.186,1.186,1.186,1.186,1.184,1.186,1.186,1.186,1.186,1.186,1.186,1.184,1.184,1.184,1.184,1.182,1.182,1.182,1.18,1.18,1.18,1.178,1.178,1.178,1.178,1.178,1.178,1.178,1.178,1.18,1.18,1.18,1.182,1.182,1.182,1.182,1.182,1.182,1.182,1.182,1.182,1.182,1.182,1.182,1.182,1.182,1.182,1.182,1.182,1.182,1.182,1.182,1.182,1.182,1.182,1.182,1.182,1.182,1.182,1.182,1.184,1.184,1.184,1.184,1.184,1.184,1.184,1.184,1.186,1.186,1.184,1.184,1.184,1.182,1.182,1.182,1.182,1.182,1.182,1.182,1.182,1.182,1.182,1.182,1.182,1.18,1.18,1.18,1.18,1.18,1.18,1.178,1.178,1.178,1.178,1.178,1.178,1.178,1.178,1.178,1.176,1.176,1.176,1.176,1.176,1.178,1.178,1.178,1.18,1.18,1.18,1.182,1.182,1.184,1.184,1.184,1.184,1.186,1.186,1.184,1.184,1.182,1.182,1.182,1.18,1.18,1.18,1.18,1.18,1.182,1.182,1.182,1.184,1.186,1.188,1.188,1.19,1.19,1.188,1.188,1.188,1.186,1.186,1.184,1.184,1.184,1.182,1.182,1.182,1.182,1.182,1.18,1.18,1.178,1.176,1.174,1.174,1.17,1.168,1.168,1.166,1.164,0,0,0,0,0,0,0,0,0,0,0,0,0,1.168,1.164,1.16,1.16,1.158,1.154,1.148,1.144,1.14,1.136,1.132,1.129,1.125,1.121,1.117,1.115,1.112,1.11,1.108,1.106,1.106,1.103,1.101,1.099,1.099,1.099,1.099,1.099,1.101,1.103,1.103
1.158,1.158,1.158,1.158,1.16,1.16,1.16,1.16,1.16,1.16,1.16,1.16,1.158,1.158,1.156,1.156,1.156,1.156,1.154,1.154,1.154,1.152,1.154,1.154,1.154,1.156,1.158,1.16,1.16,1.162,1.164,1.164,1.166,1.168,1.168,1.17,1.17,1.17,1.172,1.172,1.172,1.172,1.17,1.17,1.17,1.168,1.168,1.168,1.168,1.168,1.168,1.168,1.168,1.168,1.168,1.168,1.168,1.168,1.168,1.168,1.166,1.166,1.166,1.166,1.166,1.166,1.166,1.166,1.166,1.166,1.166,1.166,1.166,1.166,1.166,1.166,1.166,1.166,1.168,1.168,1.168,1.168,1.17,1.168,1.17,1.17,1.17,1.17,1.17,1.17,1.17,1.17,1.17,1.17,1.17,1.17,1.172,1.172,1.172,1.174,1.174,1.174,1.176,1.178,1.178,1.178,1.18,1.18,1.18,1.182,1.18,1.18,1.18,1.18,1.178,1.176,1.172,1.168,1.166,1.164,1.164,1.162,1.162,1.164,1.168,1.172,1.174,1.176,1.178,1.18,1.182,1.182,1.182,1.18,1.18,1.18,1.18,1.18,1.18,1.18,1.18,1.18,1.18,1.18,1.18,1.18,1.18,1.18,1.18,1.18,1.18,1.182,1.182,1.182,1.182,1.182,1.182,1.182,1.182,1.18,1.18,1.178,1.178,1.176,1.176,1.174,1.174,1.174,1.174,1.174,1.174,1.176,1.176,1.176,1.178,1.178,1.178,1.178,1.18,1.18,1.18,1.18,1.18,1.182,1.182,1.18,1.18,1.18,1.182,1.182,1.182,1.184,1.184,1.184,1.184,1.184,1.184,1.184,1.184,1.184,1.184,1.182,1.182,1.182,1.18,1.18,1.178,1.178,1.176,1.176,1.174,1.174,1.172,1.172,1.172,1.17,1.172,1.172,1.172,1.172,1.174,1.174,1.176,1.176,1.176,1.178,1.178,1.18,1.18,1.18,1.182,1.182,1.182,1.182,1.182,1.182,1.182,1.182,1.18,1.18,1.18,1.18,1.18,1.182,1.18,1.18,1.18,1.18,1.18,1.18,1.178,1.178,1.178,1.176,1.176,1.176,1.174,1.174,1.174,1.174,1.174,1.174,1.176,1.176,1.176,1.178,1.178,1.18,1.18,1.18,1.18,1.18,1.178,1.178,1.178,1.178,1.178,1.178,1.178,1.176,1.176,1.176,1.176,1.178,1.178,1.178,1.178,1.178,1.18,1.18,1.18,1.182,1.182,1.182,1.184,1.184,1.184,1.182,1.182,1.182,1.18,1.18,1.178,1.176,1.176,1.176,1.176,1.176,1.176,1.176,1.176,1.176,1.176,1.176,1.176,1.176,1.176,1.176,1.176,1.176,1.176,1.176,1.176,1.176,1.176,1.176,1.176,1.176,1.176,1.176,1.178,1.178,1.176,1.176,1.176,1.176,1.176,1.176,1.174,1.174,1.172,1.172,1.172,1.17,1.17,1.17,1.168,1.168,1.168,1.168,1.168,1.17,1.17,1.17,1.172,1.172,1.174,1.174,1.174,1.174,1.174,1.176,1.176,1.174,1.174,1.174,1.174,1.174,1.174,1.174,1.174,1.174,1.174,1.174,1.174,1.174,1.174,1.174,1.174,1.174,1.174,1.174,1.174,1.174,1.176,1.176,1.176,1.176,1.176,1.176,1.176,1.178,1.178,1.178,1.176,1.176,1.176,1.174,1.174,1.174,1.174,1.174,1.174,1.174,1.174,1.174,1.174,1.174,1.174,1.174,1.174,1.172,1.172,1.172,1.172,1.172,1.172,1.17,1.17,1.17,1.17,1.17,1.17,1.17,1.17,1.168,1.168,1.168,1.17,1.17,1.17,1.172,1.172,1.172,1.174,1.174,1.176,1.176,1.178,1.178,1.178,1.178,1.178,1.176,1.176,1.176,1.176,1.174,1.172,1.172,1.172,1.172,1.172,1.172,1.172,1.172,1.172,1.176,1.176,1.176,1.176,1.176,1.176,1.176,1.176,1.174,1.174,1.174,1.174,1.174,1.172,1.174,1.174,1.174,1.172,1.172,1.172,1.17,1.17,1.168,1.166,1.166,1.166,1.162,1.162,1.162,1.16,1.158,0,0,0,0,0,0,0,0,0,0,0,1.172,1.168,1.162,1.164,1.16,1.156,1.152,1.148,1.144,1.138,1.136,1.132,1.129,1.125,1.123,1.119,1.117,1.115,1.112,1.11,1.108,1.106,1.105,1.103,1.103,1.101,1.101,1.101,1.103,1.103,1.103
1.15,1.15,1.15,1.15,1.15,1.152,1.152,1.152,1.152,1.152,1.152,1.152,1.152,1.15,1.15,1.148,1.148,1.148,1.146,1.146,1.146,1.146,1.146,1.148,1.148,1.15,1.15,1.152,1.154,1.154,1.156,1.158,1.158,1.16,1.162,1.162,1.162,1.164,1.164,1.164,1.164,1.164,1.162,1.162,1.162,1.162,1.162,1.162,1.162,1.162,1.162,1.162,1.162,1.162,1.162,1.162,1.162,1.162,1.162,1.16,1.16,1.16,1.16,1.16,1.16,1.16,1.158,1.158,1.158,1.158,1.158,1.158,1.158,1.158,1.158,1.158,1.158,1.158,1.158,1.16,1.16,1.16,1.16,1.16,1.162,1.162,1.16,1.162,1.162,1.162,1.16,1.16,1.16,1.16,1.16,1.162,1.164,1.164,1.166,1.166,1.166,1.168,1.17,1.17,1.17,1.172,1.172,1.172,1.174,1.174,1.172,1.172,1.172,1.172,1.17,1.166,1.164,1.16,1.158,1.156,1.156,1.154,1.154,1.156,1.16,1.164,1.166,1.168,1.17,1.172,1.172,1.174,1.174,1.172,1.172,1.172,1.172,1.17,1.17,1.17,1.17,1.17,1.17,1.17,1.172,1.172,1.172,1.172,1.172,1.172,1.172,1.172,1.174,1.174,1.174,1.174,1.174,1.174,1.172,1.172,1.172,1.17,1.17,1.168,1.168,1.166,1.166,1.166,1.166,1.166,1.166,1.166,1.168,1.168,1.168,1.17,1.17,1.17,1.17,1.172,1.172,1.172,1.172,1.172,1.172,1.172,1.172,1.172,1.172,1.172,1.174,1.174,1.174,1.174,1.174,1.174,1.174,1.176,1.176,1.174,1.174,1.174,1.174,1.172,1.172,1.17,1.17,1.168,1.168,1.166,1.166,1.166,1.166,1.164,1.164,1.164,1.164,1.164,1.164,1.166,1.166,1.166,1.168,1.168,1.17,1.17,1.17,1.172,1.172,1.172,1.174,1.174,1.174,1.176,1.176,1.176,1.174,1.174,1.174,1.174,1.174,1.174,1.174,1.174,1.174,1.174,1.174,1.174,1.172,1.172,1.172,1.172,1.17,1.17,1.168,1.168,1.168,1.168,1.168,1.168,1.168,1.168,1.168,1.168,1.168,1.17,1.17,1.172,1.172,1.172,1.172,1.17,1.17,1.17,1.17,1.17,1.17,1.17,1.168,1.168,1.168,1.168,1.168,1.168,1.168,1.17,1.17,1.17,1.17,1.172,1.172,1.172,1.172,1.174,1.174,1.174,1.174,1.174,1.174,1.172,1.172,1.172,1.17,1.168,1.168,1.168,1.168,1.168,1.168,1.168,1.168,1.168,1.168,1.168,1.168,1.168,1.166,1.168,1.168,1.168,1.168,1.168,1.168,1.168,1.168,1.168,1.168,1.168,1.168,1.168,1.168,1.168,1.168,1.168,1.168,1.168,1.166,1.166,1.166,1.164,1.164,1.164,1.162,1.162,1.162,1.162,1.162,1.16,1.16,1.16,1.16,1.162,1.162,1.164,1.164,1.164,1.166,1.166,1.166,1.166,1.166,1.168,1.166,1.166,1.166,1.166,1.166,1.166,1.166,1.168,1.166,1.166,1.166,1.166,1.166,1.166,1.166,1.166,1.166,1.166,1.166,1.166,1.166,1.166,1.168,1.168,1.168,1.168,1.168,1.168,1.168,1.17,1.17,1.17,1.168,1.168,1.168,1.168,1.168,1.168,1.168,1.166,1.166,1.166,1.166,1.168,1.166,1.166,1.166,1.166,1.166,1.166,1.164,1.164,1.164,1.164,1.164,1.162,1.162,1.162,1.162,1.162,1.162,1.162,1.162,1.162,1.162,1.162,1.162,1.164,1.164,1.164,1.166,1.166,1.166,1.168,1.17,1.17,1.17,1.17,1.17,1.17,1.17,1.17,1.17,1.168,1.168,1.168,1.166,1.164,1.164,1.164,1.162,1.162,1.164,1.162,1.162,1.164,1.166,1.166,1.166,1.164,1.164,1.164,1.164,1.162,1.162,1.162,1.162,1.164,1.164,1.164,1.166,1.166,1.164,1.164,1.166,1.164,1.164,1.164,1.162,1.162,1.16,1.158,1.156,1.158,1.156,1.156,0,0,0,0,0,0,0,0,0,0,0,0,1.168,1.164,1.164,1.162,1.16,1.156,1.15,1.146,1.144,1.14,1.136,1.132,1.13,1.125,1.123,1.121,1.119,1.119,1.117,1.114,1.112,1.11,1.108,1.106,1.105,1.103,1.103,1.103,1.105,1.105
1.142,1.142,1.142,1.142,1.144,1.144,1.144,1.146,1.146,1.146,1.146,1.146,1.146,1.144,1.144,1.144,1.142,1.142,1.142,1.14,1.14,1.14,1.14,1.14,1.14,1.142,1.142,1.144,1.146,1.146,1.148,1.15,1.152,1.152,1.154,1.154,1.154,1.156,1.156,1.156,1.156,1.156,1.154,1.154,1.154,1.154,1.154,1.154,1.154,1.154,1.154,1.154,1.156,1.156,1.156,1.156,1.156,1.156,1.154,1.154,1.154,1.152,1.152,1.152,1.152,1.15,1.15,1.15,1.15,1.148,1.148,1.148,1.148,1.148,1.148,1.148,1.148,1.15,1.15,1.15,1.15,1.15,1.152,1.152,1.152,1.152,1.152,1.152,1.152,1.152,1.152,1.15,1.152,1.152,1.152,1.154,1.156,1.156,1.158,1.16,1.16,1.162,1.162,1.164,1.164,1.164,1.164,1.164,1.166,1.166,1.164,1.164,1.162,1.162,1.16,1.158,1.154,1.15,1.15,1.148,1.146,1.146,1.146,1.15,1.152,1.156,1.158,1.16,1.162,1.164,1.164,1.166,1.164,1.164,1.164,1.164,1.162,1.162,1.162,1.162,1.162,1.162,1.162,1.162,1.162,1.162,1.162,1.162,1.162,1.162,1.162,1.164,1.164,1.164,1.164,1.164,1.164,1.164,1.164,1.164,1.164,1.162,1.16,1.16,1.16,1.158,1.158,1.158,1.158,1.158,1.158,1.158,1.16,1.16,1.16,1.16,1.162,1.162,1.162,1.162,1.162,1.164,1.164,1.164,1.164,1.164,1.164,1.164,1.164,1.164,1.164,1.166,1.166,1.166,1.166,1.166,1.166,1.166,1.166,1.166,1.166,1.166,1.164,1.164,1.164,1.162,1.162,1.16,1.16,1.158,1.158,1.158,1.158,1.156,1.156,1.156,1.156,1.156,1.158,1.158,1.158,1.158,1.16,1.16,1.162,1.162,1.162,1.162,1.164,1.164,1.166,1.166,1.166,1.168,1.168,1.168,1.168,1.168,1.166,1.168,1.168,1.168,1.168,1.168,1.168,1.168,1.166,1.166,1.166,1.166,1.164,1.164,1.164,1.162,1.162,1.162,1.162,1.16,1.16,1.16,1.16,1.16,1.16,1.162,1.162,1.162,1.162,1.162,1.162,1.162,1.162,1.162,1.162,1.162,1.162,1.162,1.162,1.162,1.162,1.16,1.16,1.16,1.16,1.16,1.162,1.162,1.162,1.162,1.162,1.162,1.162,1.164,1.164,1.164,1.166,1.166,1.166,1.166,1.166,1.164,1.164,1.164,1.162,1.16,1.16,1.16,1.16,1.16,1.16,1.16,1.16,1.16,1.16,1.16,1.16,1.158,1.158,1.158,1.158,1.16,1.16,1.16,1.16,1.16,1.16,1.16,1.16,1.16,1.16,1.16,1.16,1.16,1.16,1.16,1.16,1.16,1.16,1.158,1.158,1.158,1.156,1.156,1.156,1.154,1.154,1.154,1.154,1.154,1.154,1.154,1.154,1.154,1.156,1.156,1.156,1.156,1.158,1.158,1.158,1.158,1.158,1.16,1.16,1.16,1.16,1.16,1.16,1.16,1.16,1.16,1.16,1.158,1.158,1.158,1.158,1.158,1.158,1.158,1.158,1.158,1.158,1.158,1.158,1.16,1.16,1.16,1.16,1.16,1.16,1.162,1.162,1.162,1.162,1.162,1.16,1.16,1.16,1.16,1.16,1.16,1.158,1.158,1.158,1.158,1.158,1.16,1.16,1.16,1.16,1.158,1.158,1.158,1.156,1.156,1.156,1.156,1.156,1.154,1.154,1.154,1.154,1.154,1.154,1.154,1.154,1.154,1.154,1.154,1.156,1.156,1.156,1.158,1.158,1.16,1.16,1.162,1.162,1.164,1.164,1.164,1.164,1.164,1.164,1.162,1.162,1.162,1.16,1.16,1.158,1.156,1.156,1.154,1.154,1.154,1.154,1.152,1.154,1.154,1.154,1.154,1.154,1.154,1.152,1.152,1.152,1.152,1.152,1.154,1.154,1.154,1.154,1.156,1.156,1.158,1.158,1.158,1.158,1.158,1.158,1.156,1.156,1.156,1.156,1.156,1.154,1.154,1.152,1.152,0,0,0,0,0,0,0,0,0,0,0,0,0,0,1.166,1.162,1.162,1.156,1.152,1.15,1.148,1.144,1.14,1.136,1.132,1.13,1.129,1.127,1.125,1.123,1.121,1.119,1.117,1.115,1.114,1.11,1.11,1.108,1.106,1.106,1.106,1.106
1.132,1.132,1.134,1.134,1.134,1.136,1.136,1.138,1.138,1.138,1.14,1.14,1.14,1.14,1.14,1.138,1.138,1.138,1.136,1.136,1.134,1.134,1.134,1.134,1.134,1.136,1.136,1.138,1.138,1.14,1.14,1.142,1.144,1.144,1.146,1.146,1.146,1.146,1.146,1.146,1.148,1.148,1.146,1.146,1.146,1.146,1.146,1.146,1.146,1.148,1.148,1.148,1.148,1.148,1.148,1.148,1.148,1.148,1.148,1.146,1.146,1.144,1.144,1.144,1.142,1.142,1.142,1.142,1.142,1.14,1.14,1.14,1.14,1.14,1.138,1.14,1.14,1.14,1.14,1.142,1.142,1.142,1.142,1.142,1.144,1.142,1.142,1.142,1.142,1.142,1.144,1.144,1.144,1.144,1.144,1.146,1.148,1.15,1.15,1.152,1.152,1.154,1.156,1.156,1.156,1.158,1.158,1.158,1.158,1.158,1.156,1.156,1.154,1.152,1.152,1.148,1.146,1.142,1.142,1.14,1.14,1.14,1.14,1.142,1.144,1.148,1.15,1.152,1.154,1.156,1.156,1.158,1.156,1.156,1.156,1.156,1.154,1.154,1.154,1.154,1.154,1.154,1.154,1.154,1.154,1.152,1.152,1.152,1.154,1.154,1.154,1.154,1.154,1.156,1.156,1.156,1.156,1.156,1.156,1.156,1.154,1.154,1.152,1.152,1.15,1.15,1.15,1.15,1.15,1.15,1.15,1.15,1.152,1.152,1.152,1.152,1.152,1.152,1.154,1.154,1.154,1.154,1.154,1.154,1.156,1.156,1.156,1.156,1.156,1.156,1.156,1.158,1.158,1.158,1.158,1.158,1.158,1.158,1.158,1.158,1.158,1.156,1.156,1.156,1.154,1.154,1.154,1.152,1.152,1.15,1.15,1.15,1.15,1.15,1.15,1.15,1.15,1.15,1.15,1.15,1.15,1.15,1.152,1.152,1.152,1.152,1.154,1.154,1.156,1.156,1.156,1.158,1.158,1.16,1.16,1.16,1.16,1.16,1.16,1.16,1.16,1.16,1.16,1.16,1.16,1.16,1.16,1.16,1.158,1.158,1.158,1.158,1.156,1.156,1.154,1.154,1.154,1.154,1.154,1.154,1.154,1.152,1.154,1.154,1.154,1.154,1.154,1.154,1.154,1.154,1.154,1.154,1.152,1.152,1.152,1.152,1.152,1.152,1.154,1.152,1.152,1.154,1.154,1.154,1.154,1.154,1.154,1.154,1.154,1.154,1.154,1.154,1.154,1.156,1.156,1.156,1.156,1.156,1.156,1.156,1.156,1.154,1.154,1.152,1.152,1.152,1.152,1.152,1.152,1.152,1.152,1.152,1.15,1.15,1.15,1.15,1.15,1.15,1.15,1.15,1.15,1.15,1.15,1.15,1.152,1.152,1.152,1.152,1.152,1.152,1.152,1.154,1.152,1.152,1.152,1.152,1.152,1.15,1.15,1.15,1.15,1.15,1.148,1.148,1.148,1.148,1.148,1.146,1.146,1.146,1.146,1.148,1.148,1.148,1.148,1.15,1.15,1.15,1.15,1.15,1.15,1.152,1.152,1.152,1.152,1.152,1.152,1.152,1.152,1.152,1.152,1.152,1.15,1.15,1.15,1.15,1.15,1.15,1.15,1.15,1.15,1.15,1.152,1.152,1.152,1.152,1.154,1.154,1.154,1.154,1.154,1.154,1.154,1.152,1.152,1.152,1.152,1.15,1.15,1.15,1.15,1.15,1.15,1.15,1.15,1.15,1.15,1.15,1.15,1.15,1.148,1.148,1.148,1.148,1.148,1.146,1.146,1.146,1.146,1.146,1.146,1.146,1.146,1.146,1.146,1.148,1.148,1.148,1.148,1.15,1.15,1.15,1.152,1.152,1.154,1.154,1.156,1.156,1.156,1.156,1.156,1.156,1.156,1.156,1.154,1.154,1.154,1.152,1.15,1.148,1.148,1.148,1.146,1.146,1.146,1.144,1.144,1.144,1.144,1.144,1.144,1.142,1.142,1.142,1.142,1.142,1.142,1.144,1.144,1.144,1.146,1.146,1.148,1.15,1.15,1.15,1.152,1.152,1.152,1.152,1.152,1.152,1.15,1.15,1.15,1.148,1.146,1.146,0,0,0,0,0,0,0,0,0,0,0,0,1.166,0,0,0,1.16,1.156,1.154,1.15,1.148,1.146,1.142,1.14,1.136,1.134,1.132,1.13,1.13,1.129,1.127,1.125,1.123,1.119,1.117,1.114,1.112,1.11,1.108,1.108,1.106,1.106
