0.544,0.544,0.543,0.543,0.543,0.544,0.544,0.544,0.544,0.545,0.545,0.546,0.546,0.546,0.546,0.546,0.545,0.545,0.545,0.545,0.544,0.544,0.543,0.543,0.544,0.544,0.544,0.544,0.544,0.545,0.545,0.545,0.546,0.546,0.547,0.547,0.548,0.548,0.548,0.547,0.547,0.547,0.546,0.546,0.546,0.545,0.545,0.545,0.546,0.546,0.546,0.547,0.546,0.547,0.547,0.547,0.546,0.546,0.546,0.546,0.546,0.546,0.547,0.547,0.547,0.547,0.547,0.547,0.547,0.547,0.546,0.546,0.546,0.546,0.546,0.546,0.546,0.546,0.546,0.546,0.547,0.547,0.548,0.548,0.548,0.549,0.55,0.55,0.55,0.55,0.55,0.55,0.55,0.55,0.549,0.549,0.548,0.548,0.548,0.547,0.547,0.548,0.548,0.549,0.55,0.551,0.552,0.554,0.555,0.558,0.56,0.563,0.566,0.57,0.573,0.578,0.582,0.586,0.59,0.594,0.598,0.601,0,0,0.61,0,0,0,0,0,0,0,0,0.678,0.682,0.687,0.691,0.694,0,0.7,0,0,0,0,0,0,0.903,0,0.903,0.903,0.903,0.902,0.902,0.902,0.901,0.901,0.9,0.9,0.901,0.902,0.903,0.906,0.908,0.911,0.912,0.913,0.914,0.916,0.916,0.916,0.916,0.913,0.913,0.911,0.91,0.908,0.908,0.908,0.907,0.906,0.906,0.906,0.907,0.907,0.907,0.907,0.906,0.906,0.906,0.907,0.907,0.908,0.908,0.907,0.908,0.91,0.91,0.91,0.908,0.91,0.911,0.914,0.916,0.917,0.918,0.918,0,0,0,0,0,0,0,0,0,0,0,0,0,0,0,0,0,0,0,0,0,0,0,0,0,0,0,0,0,0,0,0,0,0,0,0,0,0,0,0,0,0,0,0,0,0,0,0,0,0,0,0,0,0,0,0,0,0,0,0,0,0,0,0,0,0,0,0,0,0,0,0,0,0,0,0,0,0,0.91,0.91,0.908,0.908,0.91,0.908,0.91,0.911,0.91,0,0,0,0,0,0,0,0,0,0,0,0,0,0,0,0,0,0,0,0,0,0,0,0,0,0,0,0,0,0,0,0,0,0,0,0,0,0,0,0,0,0,0,0,0,0,0.623,0.623,0.622,0.621,0.62,0.618,0.617,0.616,0.614,0.611,0.61,0.607,0.606,0.603,0.601,0.598,0.595,0.591,0.588,0,0.581,0,0.575,0.572,0.57,0.569,0.568,0.567,0.565,0,0,0,0,0,0,0,0,0,0,0,0,0,0,0,0,0,0,0,0,0,0,0,0,0,0,0,0,0,0,0,0,0,0,0,0,0,0,0,0,0,0,0,0,0,0,0,0.589,0.589,0,0,0,0.588,0.587,0.585,0.583,0.582,0.581,0.579,0.578,0.577,0.577,0.576,0.577,0,0.581,0,0.584,0,0,0,0,0,0,0,0,0,0,0,0,0,0,0,0,0,0,0,0,0,0,0,0.518,0.52,0.523,0.526,0.526,0.527,0,0.527,0.526,0.526,0.524,0,0,0.516,0.513,0,0.509,0.507,0.504,0,0,0,0,0,0,0,0,0,0,0,0,0,0,0,0,0,0,0,0,0,0,0,0,0,0,0,0,0,0,0.504,0.502,0.501,0.5,0.499,0.497,0.496,0,0,0,0,0,0,0,0,0,0,0,0,0,0,0,0,0,0,0,0,0,0,0,0,0,0,0,0.919,0.919,0.922,0.924,0.928,0.931,0.935,0.937,0.94,0.944,0.944,0.944,0.943,0.94,0.937,0.935,0.932,0.931,0.927,0.926,0.924,0,0,0,0,0,0
0.544,0.544,0.544,0.544,0.544,0.544,0.544,0.545,0.545,0.545,0.546,0.546,0.546,0.546,0.546,0.546,0.545,0.545,0.545,0.545,0.544,0.544,0.544,0.544,0.544,0.544,0.544,0.544,0.545,0.545,0.545,0.546,0.546,0.547,0.547,0.548,0.548,0.548,0.548,0.548,0.547,0.547,0.547,0.547,0.546,0.546,0.546,0.546,0.546,0.547,0.547,0.547,0.547,0.547,0.547,0.547,0.547,0.546,0.547,0.546,0.546,0.546,0.547,0.547,0.547,0.547,0.547,0.547,0.547,0.546,0.546,0.546,0.546,0.545,0.545,0.546,0.546,0.546,0.546,0.546,0.547,0.547,0.547,0.548,0.548,0.548,0.549,0.549,0.549,0.549,0.55,0.55,0.55,0.55,0.549,0.549,0.548,0.548,0.548,0.547,0.547,0.548,0.548,0.549,0.55,0.551,0.553,0.554,0.555,0.558,0.56,0.563,0.566,0.569,0.573,0.577,0.581,0.586,0.589,0.594,0.597,0,0,0,0,0,0,0,0,0,0,0,0,0,0.676,0.681,0,0,0,0,0,0,0,0,0.895,0.895,0.895,0,0.895,0.896,0.895,0.895,0.896,0.895,0.895,0.895,0.896,0.896,0.896,0.899,0.901,0.902,0.906,0.908,0.911,0.913,0.913,0.913,0.913,0.913,0.913,0.912,0.911,0.908,0.907,0.906,0.905,0.905,0.903,0.902,0.902,0.903,0.905,0.905,0.905,0.905,0.903,0.903,0.903,0.903,0.903,0.903,0.903,0.902,0.902,0.903,0.903,0.905,0.903,0.905,0.905,0.908,0.911,0.911,0.911,0.912,0,0,0,0,0,0,0,0,0.893,0,0.895,0.897,0.897,0.897,0.897,0.897,0.896,0,0,0,0,0,0,0,0,0,0,0,0,0,0,0,0,0,0,0,0,0,0,0,0,0,0,0,0,0,0,0,0,0,0,0,0,0,0,0,0,0,0,0,0,0,0,0,0,0,0,0,0,0,0,0,0,0,0,0,0,0,0,0.903,0.905,0.905,0.906,0.905,0.906,0.906,0.906,0,0,0,0,0,0,0,0,0,0,0,0,0,0,0,0,0,0,0,0,0,0,0,0,0,0,0,0,0,0,0,0,0,0,0,0,0,0,0,0,0,0,0,0,0,0,0.628,0.626,0.625,0.623,0.621,0.619,0.617,0.616,0.615,0.612,0.61,0.608,0.606,0.604,0.601,0.599,0.597,0.593,0.59,0.586,0,0,0,0.572,0.57,0.569,0.568,0,0,0,0,0,0,0,0.529,0,0,0,0,0,0,0,0,0,0,0,0,0,0,0,0,0,0,0,0,0,0,0,0,0,0,0,0,0,0,0,0,0,0,0,0,0,0,0,0,0,0,0.586,0.587,0.587,0.587,0.586,0.585,0.583,0.582,0.582,0.58,0.579,0.578,0.578,0.577,0.576,0.577,0.578,0.58,0.582,0,0,0,0,0,0,0,0,0,0,0,0,0,0,0,0,0,0,0,0,0.506,0.508,0.51,0,0.515,0.518,0.522,0.525,0.526,0.526,0.528,0.528,0.528,0.527,0.527,0.525,0.522,0.519,0.516,0.512,0.511,0.509,0.507,0.506,0,0,0,0,0,0,0,0,0,0,0,0,0,0,0,0,0,0,0,0,0,0,0,0,0,0,0,0,0,0,0.5,0.5,0.498,0.498,0.497,0.496,0.497,0,0,0,0,0,0,0,0,0,0,0,0,0,0,0,0,0,0,0,0,0,0,0,0,0,0,0,0.917,0.919,0.922,0.926,0.928,0.931,0.935,0.937,0.941,0.943,0.941,0.94,0.936,0.935,0.931,0.928,0.927,0.926,0.924,0.923,0,0,0,0,0,0
0.545,0.545,0.544,0.544,0.544,0.545,0.545,0.545,0.545,0.546,0.546,0.546,0.546,0.547,0.546,0.546,0.546,0.546,0.546,0.545,0.544,0.544,0.544,0.544,0.544,0.545,0.545,0.545,0.545,0.546,0.546,0.546,0.547,0.547,0.548,0.548,0.549,0.549,0.548,0.548,0.547,0.547,0.547,0.547,0.546,0.546,0.546,0.546,0.547,0.547,0.547,0.547,0.547,0.547,0.547,0.547,0.547,0.547,0.547,0.547,0.547,0.547,0.547,0.547,0.547,0.547,0.547,0.547,0.546,0.547,0.547,0.546,0.546,0.545,0.545,0.546,0.546,0.546,0.546,0.546,0.547,0.547,0.547,0.548,0.548,0.548,0.548,0.548,0.549,0.549,0.549,0.55,0.55,0.549,0.549,0.549,0.548,0.548,0.548,0.547,0.547,0.548,0.548,0.549,0.55,0.552,0.553,0.555,0.556,0.558,0.56,0.563,0.566,0.569,0.572,0.576,0.581,0.585,0.589,0.593,0.597,0.599,0,0,0,0,0,0,0,0,0,0.66,0,0,0.671,0.676,0.682,0.687,0,0,0,0,0,0.889,0.889,0.889,0.889,0.889,0.89,0.89,0.889,0.889,0.89,0.89,0.89,0.89,0.891,0.891,0.893,0.894,0.896,0.899,0.902,0.906,0.907,0.908,0.908,0.91,0.91,0.911,0.911,0.91,0.907,0.906,0.903,0.903,0.902,0.901,0.9,0.899,0.9,0.9,0.9,0.901,0.902,0.902,0.902,0.902,0.902,0.901,0.901,0.901,0.9,0.899,0.897,0.899,0.899,0.899,0.899,0.9,0.901,0.903,0.905,0.906,0.906,0.906,0.906,0,0,0,0,0,0,0,0,0,0.893,0.894,0.895,0.895,0.896,0.895,0.895,0.895,0,0,0,0,0,0,0,0,0,0,0,0,0,0,0,0,0,0,0,0,0,0,0,0,0,0,0,0,0,0,0,0,0,0,0,0,0,0,0,0,0,0,0,0,0,0,0,0,0,0,0,0,0,0.9,0.899,0,0,0,0,0,0,0.9,0.9,0.9,0.901,0.901,0.901,0.901,0.9,0,0,0,0,0,0,0,0,0,0,0,0,0,0,0,0,0,0,0,0,0,0,0,0,0,0,0,0,0,0,0,0,0,0,0,0,0,0,0,0,0,0,0,0,0,0,0,0.63,0.628,0.625,0.623,0.621,0.618,0.616,0.615,0.614,0.611,0.609,0.607,0.605,0.603,0.6,0.598,0.594,0.591,0,0,0,0,0,0.57,0.569,0.567,0,0,0.558,0.554,0.546,0,0,0,0.525,0.522,0,0,0,0,0,0,0,0,0,0,0,0,0,0,0,0,0,0,0,0,0,0,0,0,0,0,0,0,0,0,0,0,0,0,0,0,0,0,0,0,0,0.584,0.584,0.584,0.583,0.583,0.582,0,0.581,0.58,0.579,0.578,0.578,0.577,0.576,0.577,0.578,0.58,0.582,0,0,0,0,0,0,0,0,0,0,0,0,0,0,0,0,0.506,0.505,0.504,0.504,0.505,0.507,0.508,0.51,0.512,0.515,0.518,0.522,0.524,0.525,0.526,0.527,0.528,0.528,0.528,0.526,0.522,0.519,0,0.512,0.511,0.51,0.508,0.507,0,0,0,0,0,0,0,0,0,0,0,0,0,0,0,0,0,0,0,0,0,0,0,0,0,0,0,0,0,0,0,0.498,0.498,0.497,0.496,0.495,0.498,0.5,0,0,0,0,0,0,0,0,0,0,0,0,0,0,0,0,0,0,0,0,0,0,0,0,0,0,0,0.916,0.918,0.922,0,0,0.931,0.935,0.937,0.94,0.94,0.937,0.932,0.931,0.928,0.926,0.924,0.923,0.922,0.921,0,0,0,0,0,0
0.545,0.545,0.545,0.545,0.545,0.545,0.545,0.546,0.546,0.546,0.546,0.547,0.547,0.547,0.547,0.546,0.546,0.546,0.546,0.546,0.545,0.545,0.545,0.545,0.545,0.545,0.546,0.546,0.546,0.546,0.546,0.547,0.547,0.548,0.548,0.549,0.549,0.549,0.548,0.548,0.547,0.547,0.547,0.547,0.546,0.546,0.546,0.546,0.546,0.547,0.547,0.547,0.547,0.547,0.547,0.548,0.548,0.548,0.548,0.547,0.547,0.547,0.547,0.547,0.547,0.547,0.546,0.546,0.546,0.547,0.547,0.546,0.546,0.546,0.546,0.546,0.546,0.546,0.546,0.546,0.547,0.548,0.548,0.548,0.548,0.548,0.548,0.548,0.549,0.549,0.549,0.549,0.55,0.549,0.549,0.549,0.548,0.548,0.548,0.548,0.548,0.548,0.549,0.55,0.551,0.553,0.554,0.555,0.556,0.558,0.56,0.563,0.566,0.569,0.571,0.576,0.58,0.584,0.588,0.592,0.596,0.598,0,0,0,0,0,0,0,0.651,0.656,0.66,0.661,0.664,0.667,0.671,0.676,0,0,0,0,0,0,0,0.883,0.883,0.883,0.884,0.884,0.886,0.884,0.884,0.886,0.886,0.886,0.886,0.886,0.887,0.888,0.889,0.891,0.894,0.896,0.9,0.901,0.902,0.903,0.903,0.903,0.905,0.906,0.906,0.903,0.902,0.901,0.9,0.899,0.899,0.896,0.895,0.896,0.895,0.896,0.897,0.899,0.9,0.899,0.9,0.899,0.897,0.896,0.896,0.895,0.894,0.894,0.894,0.893,0.894,0.894,0.894,0.896,0.899,0.9,0.9,0,0,0.9,0.897,0,0,0,0,0,0,0.888,0.888,0.89,0.89,0.891,0.893,0.893,0.893,0.891,0.891,0.891,0.89,0.889,0,0,0,0,0,0,0,0,0,0,0,0,0,0,0,0,0,0,0,0,0,0,0,0,0,0,0,0,0,0,0,0,0,0,0,0,0,0,0,0,0,0,0,0,0,0,0,0,0,0.896,0.896,0.895,0.895,0,0,0,0,0,0.893,0.893,0.895,0.896,0.896,0.895,0.896,0,0,0,0,0,0,0,0,0,0,0,0,0,0,0,0,0,0,0,0,0,0,0,0,0,0,0,0,0,0,0,0,0,0,0,0,0,0,0,0,0,0,0,0,0,0,0,0,0,0,0.626,0.623,0.621,0.619,0.617,0.616,0.614,0.612,0.61,0.608,0.605,0.603,0.601,0.598,0.595,0.591,0.587,0.583,0.58,0.576,0.571,0.57,0.568,0.566,0.565,0.562,0.557,0.552,0.544,0,0,0,0.524,0.521,0.518,0.515,0,0,0,0,0,0,0,0,0,0,0,0,0,0,0,0,0,0,0,0,0,0,0,0,0,0,0,0,0,0,0,0,0,0,0,0,0,0,0,0,0.583,0.582,0.582,0.581,0.581,0,0.58,0.58,0.579,0.579,0.578,0.578,0.578,0.578,0.579,0.582,0.585,0,0,0,0,0,0,0,0,0,0,0,0,0,0,0.508,0.507,0.506,0.505,0.505,0.504,0.505,0.506,0.507,0.508,0.51,0.512,0.514,0.518,0.52,0.521,0.522,0,0,0,0,0,0,0.52,0,0,0.511,0.51,0.508,0,0,0,0,0,0,0,0,0,0,0,0,0,0,0,0,0,0,0,0,0,0,0,0,0,0,0,0,0,0,0,0,0,0.497,0.497,0.496,0.496,0.498,0.5,0.502,0,0.509,0.512,0.516,0,0,0,0,0,0,0,0,0,0,0,0,0,0,0,0,0,0,0,0,0,0,0,0,0,0,0,0,0,0,0,0,0,0,0,0,0,0,0.919,0.919,0.918,0,0,0,0,0,0
0.546,0.545,0.545,0.545,0.545,0.545,0.546,0.546,0.546,0.546,0.546,0.547,0.547,0.547,0.547,0.547,0.546,0.546,0.546,0.546,0.546,0.546,0.545,0.545,0.545,0.546,0.546,0.546,0.546,0.547,0.547,0.547,0.548,0.548,0.549,0.549,0.549,0.549,0.548,0.548,0.547,0.547,0.547,0.547,0.547,0.546,0.546,0.546,0.547,0.547,0.547,0.547,0.547,0.547,0.548,0.548,0.548,0.548,0.548,0.548,0.548,0.547,0.547,0.547,0.547,0.547,0.547,0.546,0.547,0.547,0.547,0.546,0.546,0.546,0.546,0.546,0.546,0.546,0.547,0.547,0.548,0.548,0.548,0.548,0.548,0.548,0.548,0.548,0.549,0.549,0.549,0.549,0.549,0.549,0.549,0.549,0.549,0.549,0.548,0.548,0.548,0.549,0.55,0.55,0.551,0.553,0.555,0.556,0.557,0.559,0.561,0.563,0.566,0.569,0.571,0.575,0.579,0.584,0.587,0.591,0.595,0.597,0,0.602,0.605,0,0,0,0,0.652,0.656,0.658,0.659,0.661,0.662,0.666,0,0,0,0,0,0,0,0,0.879,0.879,0.879,0.88,0.88,0.88,0.88,0.88,0.881,0.881,0.881,0.881,0.881,0.882,0.882,0.884,0.887,0.888,0.891,0.894,0.896,0.896,0.896,0.897,0.897,0.899,0.9,0.899,0.899,0.897,0.896,0.895,0.895,0.895,0.893,0.893,0.893,0.891,0.893,0.894,0.895,0.895,0.895,0.895,0.894,0.894,0.891,0.891,0.89,0.889,0.888,0.888,0.888,0.888,0.888,0.889,0.889,0.893,0.894,0,0,0,0.893,0.891,0.889,0.887,0,0,0,0,0.886,0.886,0.887,0.889,0.89,0.89,0.89,0.889,0.889,0.889,0.888,0.887,0,0,0,0,0,0,0,0,0.876,0,0,0,0,0,0,0,0,0,0,0,0,0,0,0,0,0,0,0,0,0,0,0,0,0,0,0,0,0,0,0,0,0,0,0,0,0,0,0,0,0,0.893,0.893,0.891,0.891,0,0,0,0.889,0.888,0.888,0.888,0.889,0.89,0.891,0.89,0,0,0,0,0,0,0,0,0,0,0,0,0,0,0,0,0,0,0,0,0,0,0,0,0,0,0,0,0,0,0,0,0,0,0,0,0,0,0,0,0,0,0,0,0,0,0.637,0,0,0.631,0.63,0.627,0.624,0.623,0.62,0.619,0.617,0.615,0.613,0.611,0.609,0.607,0.605,0.603,0.599,0.595,0.591,0,0.583,0.579,0.575,0.57,0.569,0.566,0.565,0.563,0.561,0,0,0,0.538,0.532,0,0,0.52,0.517,0.514,0.513,0.512,0,0,0,0,0,0,0,0,0,0,0,0,0,0,0,0,0,0,0,0,0,0,0,0,0,0,0,0,0,0,0,0,0,0,0,0,0,0,0.58,0.58,0.58,0.58,0.58,0.58,0.58,0.579,0.579,0.579,0.579,0.578,0.577,0.578,0,0,0,0,0,0,0,0,0,0,0,0,0,0,0,0,0,0,0.507,0.507,0.506,0.505,0.505,0.505,0.505,0.505,0.506,0,0,0,0,0.513,0.514,0,0,0,0,0,0,0,0,0,0,0,0,0.509,0.508,0,0,0,0,0,0,0,0,0,0,0,0,0,0,0,0,0,0,0,0,0,0,0,0,0,0,0,0,0,0,0,0,0,0,0.496,0.496,0.498,0.501,0.503,0,0.509,0.512,0.515,0.518,0.518,0,0,0,0,0,0,0,0,0,0.522,0,0,0,0,0,0,0,0,0,0,0,0,0,0,0,0,0,0,0,0,0,0.923,0.922,0,0.921,0.919,0.918,0.917,0,0,0,0,0,0,0
0.546,0.546,0.546,0.546,0.546,0.546,0.546,0.546,0.546,0.546,0.547,0.547,0.547,0.547,0.547,0.547,0.547,0.547,0.547,0.547,0.546,0.546,0.546,0.546,0.546,0.546,0.546,0.546,0.547,0.547,0.547,0.548,0.548,0.548,0.549,0.549,0.549,0.549,0.548,0.548,0.548,0.548,0.547,0.547,0.547,0.546,0.546,0.546,0.546,0.547,0.547,0.547,0.547,0.547,0.548,0.548,0.548,0.548,0.549,0.548,0.548,0.548,0.547,0.547,0.547,0.547,0.547,0.546,0.547,0.547,0.547,0.547,0.546,0.546,0.546,0.547,0.547,0.547,0.547,0.548,0.548,0.549,0.549,0.548,0.548,0.548,0.548,0.548,0.549,0.549,0.549,0.549,0.55,0.549,0.55,0.549,0.549,0.549,0.549,0.549,0.55,0.55,0.55,0.551,0.552,0.554,0.555,0.556,0.558,0.559,0.561,0.563,0.566,0.569,0.571,0.575,0.579,0.583,0.587,0.591,0.594,0.597,0.599,0.603,0,0,0,0,0.643,0.651,0.655,0,0,0.658,0.66,0.662,0,0,0,0,0,0,0,0,0.875,0.875,0.875,0.876,0.876,0.876,0.876,0.876,0.878,0.878,0.878,0.878,0.878,0.879,0.879,0.88,0.881,0.883,0.884,0.888,0.889,0.89,0.891,0.891,0.891,0.891,0.894,0.894,0.893,0.891,0.891,0.89,0.89,0.889,0.888,0.887,0.887,0.887,0.887,0.888,0.889,0.89,0.89,0.89,0.889,0.889,0.888,0.888,0.887,0.884,0.884,0.883,0.883,0.883,0.883,0.883,0.883,0.884,0.886,0.886,0,0,0,0.884,0.883,0.882,0.882,0.881,0.882,0.882,0.883,0.884,0.884,0.886,0.887,0.887,0.887,0.887,0.884,0.884,0.883,0.881,0,0,0,0,0,0,0.873,0.874,0.873,0.873,0.873,0,0,0,0,0,0,0,0,0,0,0,0,0,0,0,0,0,0,0,0,0,0,0,0,0,0,0,0,0,0,0,0,0,0,0,0,0,0,0,0.888,0.888,0.887,0.887,0.887,0.888,0.887,0.886,0.884,0.884,0.884,0.886,0.886,0.887,0.886,0.886,0,0,0,0,0,0,0,0,0,0,0,0,0,0,0,0,0,0,0,0,0,0,0,0,0,0,0,0,0,0,0,0,0,0,0,0,0,0,0,0,0,0,0,0,0,0.635,0,0.633,0.632,0,0,0.626,0.624,0.622,0.62,0.619,0.616,0.615,0.612,0.61,0.608,0.605,0.603,0.599,0.595,0.59,0,0.581,0.577,0.573,0.569,0.567,0.565,0.563,0,0,0,0,0,0.54,0.535,0.529,0.525,0.521,0.516,0.514,0.513,0.512,0.51,0,0,0,0,0,0,0,0,0,0,0,0,0,0,0,0,0,0,0,0,0,0,0,0,0,0,0,0,0,0,0,0,0,0,0,0,0,0,0,0.577,0.578,0.578,0.578,0.578,0.578,0.577,0.578,0.577,0.577,0.576,0,0,0,0,0,0,0,0,0,0,0,0,0,0,0,0,0,0,0,0.508,0.507,0.506,0.505,0.505,0.504,0.504,0.503,0.504,0.504,0.504,0.504,0,0,0.505,0,0,0,0,0,0,0,0,0,0,0.511,0.51,0.509,0.508,0,0,0,0,0,0,0,0,0,0,0,0,0,0,0,0,0,0,0,0,0,0,0,0,0,0,0,0,0,0,0,0,0,0,0.495,0.495,0.498,0.501,0.504,0,0.509,0.511,0.514,0.516,0.517,0.518,0.519,0,0,0,0.523,0.523,0,0,0,0.523,0.523,0,0,0,0,0,0,0,0,0,0,0,0,0,0,0,0,0,0,0,0,0,0,0.918,0.918,0.917,0.916,0,0,0,0,0,0,0
0.546,0.546,0.546,0.546,0.546,0.546,0.546,0.546,0.546,0.546,0.546,0.547,0.547,0.547,0.547,0.547,0.547,0.548,0.548,0.548,0.547,0.547,0.546,0.546,0.546,0.546,0.546,0.547,0.547,0.548,0.548,0.548,0.549,0.549,0.549,0.549,0.55,0.549,0.549,0.548,0.548,0.548,0.548,0.547,0.547,0.546,0.546,0.546,0.546,0.547,0.547,0.547,0.547,0.547,0.548,0.549,0.549,0.549,0.549,0.549,0.548,0.548,0.548,0.547,0.547,0.547,0.546,0.547,0.547,0.547,0.547,0.547,0.546,0.546,0.546,0.547,0.547,0.548,0.548,0.548,0.548,0.549,0.549,0.549,0.548,0.548,0.548,0.549,0.549,0.549,0.549,0.549,0.55,0.55,0.55,0.55,0.55,0.55,0.55,0.55,0.55,0.55,0.55,0.551,0.552,0.554,0.555,0.556,0.558,0.559,0.561,0.563,0.566,0.569,0.571,0.574,0.579,0.583,0.587,0.591,0.594,0.596,0.599,0.603,0,0,0,0,0,0,0,0,0,0,0,0,0,0,0,0,0,0,0,0.873,0.872,0.872,0.872,0.873,0.873,0.872,0.873,0.873,0.873,0.874,0.874,0.874,0.874,0.874,0.874,0.875,0.876,0.878,0.879,0.881,0.882,0.883,0.883,0.884,0.884,0.886,0.887,0.887,0.886,0.886,0.884,0.884,0.884,0.884,0.883,0.882,0.882,0.882,0.883,0.883,0.884,0.887,0.886,0.886,0.886,0.886,0.884,0.883,0.882,0.881,0.88,0.879,0.879,0.878,0.878,0.878,0.879,0.878,0.879,0.879,0,0,0.88,0.879,0.878,0.878,0.879,0.878,0.879,0.879,0.88,0.88,0.88,0.881,0.881,0.882,0.881,0.88,0.88,0.879,0.879,0.876,0,0,0,0,0,0,0.87,0.871,0.871,0.871,0.872,0.872,0.872,0,0,0,0,0,0,0,0,0,0,0,0,0,0,0,0,0,0,0,0,0,0,0,0,0,0,0,0,0,0,0,0,0.879,0.88,0.882,0.883,0.884,0.884,0.884,0.883,0.884,0.884,0.884,0.883,0.883,0.882,0.881,0.881,0.882,0.882,0.882,0.88,0.88,0,0,0,0,0,0,0,0,0,0,0,0,0,0,0,0,0,0,0,0,0,0,0,0,0,0,0,0,0,0,0,0,0,0,0,0,0,0,0,0,0,0,0,0,0,0.634,0.635,0.634,0.634,0,0,0.631,0.63,0.627,0.625,0.623,0.62,0.617,0.615,0.611,0.607,0.604,0.599,0,0.59,0.586,0.581,0.576,0.573,0.569,0.566,0.565,0.563,0.561,0,0,0,0,0,0.541,0.536,0,0.525,0.521,0.516,0.514,0.513,0.512,0.51,0,0,0,0,0,0,0,0,0,0,0,0,0,0,0,0,0,0,0,0,0,0,0,0,0,0,0,0,0,0,0,0,0,0,0,0,0,0,0,0,0.577,0.577,0.577,0.577,0.577,0.576,0.576,0.576,0.576,0,0,0,0,0,0,0,0,0,0,0,0,0,0,0,0,0,0,0,0,0,0.507,0.506,0.505,0.504,0.503,0.502,0.502,0.502,0.501,0,0.5,0.5,0.5,0.498,0,0,0,0,0,0,0,0,0,0,0.51,0.51,0.509,0.509,0.507,0,0,0,0,0,0,0,0,0,0,0,0,0,0,0,0,0,0,0,0,0,0,0,0,0,0,0,0,0,0,0,0,0,0,0.495,0.499,0.502,0.504,0,0.509,0.511,0.514,0.515,0.516,0.516,0.518,0.519,0,0,0.522,0.523,0,0,0,0,0.524,0.523,0,0,0,0,0,0,0,0,0,0,0,0,0,0,0,0,0,0,0,0,0,0,0.914,0.911,0,0,0,0,0,0,0,0
0.546,0.546,0.546,0.546,0.546,0.546,0.546,0.546,0.546,0.546,0.546,0.547,0.547,0.547,0.547,0.548,0.548,0.548,0.549,0.548,0.548,0.548,0.547,0.547,0.547,0.547,0.547,0.547,0.547,0.548,0.548,0.549,0.549,0.549,0.55,0.55,0.55,0.55,0.549,0.549,0.548,0.548,0.547,0.547,0.547,0.546,0.546,0.546,0.547,0.547,0.548,0.548,0.547,0.548,0.549,0.549,0.55,0.55,0.55,0.55,0.549,0.549,0.548,0.548,0.548,0.547,0.547,0.547,0.547,0.547,0.547,0.547,0.547,0.547,0.547,0.548,0.548,0.548,0.548,0.549,0.549,0.549,0.55,0.549,0.549,0.549,0.549,0.549,0.549,0.549,0.55,0.55,0.55,0.55,0.55,0.55,0.55,0.55,0.55,0.55,0.55,0.55,0.551,0.552,0.552,0.554,0.555,0.556,0.558,0.56,0.561,0.564,0.566,0.569,0.57,0.574,0.578,0.582,0.586,0.59,0.593,0.595,0.599,0.603,0,0,0,0,0,0,0,0,0,0,0,0,0,0,0,0,0,0,0,0.867,0.866,0.866,0.866,0.867,0.869,0.869,0.867,0.869,0.87,0.87,0.871,0.872,0.871,0.872,0.872,0.872,0.872,0.872,0.874,0.875,0.878,0.878,0.878,0.879,0.879,0.88,0.881,0.881,0.881,0.88,0.88,0.879,0.879,0.879,0.878,0.878,0.878,0.878,0.879,0.879,0.881,0.881,0.881,0.881,0.881,0.881,0.88,0.879,0.878,0.876,0.874,0.874,0.874,0.873,0.872,0.872,0.871,0.871,0.871,0.872,0.873,0.873,0.873,0.874,0.873,0.874,0.874,0.874,0.874,0.875,0.875,0.875,0.875,0.875,0.876,0.876,0.875,0.875,0.875,0.874,0.873,0.872,0.87,0.867,0.865,0,0.865,0.867,0.867,0.869,0.869,0.869,0.87,0.871,0.871,0,0,0,0,0,0,0,0,0,0,0,0,0,0,0,0,0,0,0,0,0,0,0,0,0,0,0,0,0,0,0,0.876,0.878,0.878,0.879,0.88,0.881,0.881,0.881,0.88,0.88,0.881,0.881,0.88,0.88,0.879,0.878,0.878,0.879,0.878,0.876,0.876,0.875,0,0,0,0,0,0,0,0,0,0,0,0,0,0,0,0,0,0,0,0,0,0,0,0,0,0,0,0,0,0,0,0,0,0,0,0,0,0,0,0,0,0,0,0,0,0,0.635,0.635,0,0.638,0,0.637,0.637,0.634,0.631,0.627,0.624,0.62,0.615,0.61,0.605,0.6,0.595,0.591,0.585,0.581,0.576,0.573,0.57,0.567,0.565,0,0,0.56,0.559,0.557,0,0,0,0,0,0,0,0.521,0.516,0.513,0.512,0.511,0.509,0,0,0,0,0,0,0,0,0,0,0,0,0,0,0,0,0,0,0,0,0,0,0,0,0,0,0,0,0,0,0,0,0,0,0,0,0,0,0,0,0,0.576,0.577,0.577,0.576,0.575,0.575,0.575,0,0,0,0,0,0,0,0,0,0,0,0,0,0,0,0,0,0,0,0,0,0.507,0.507,0.506,0.504,0.504,0.503,0.502,0.501,0.5,0.5,0.498,0.497,0.496,0.495,0.493,0.491,0.489,0.488,0,0,0,0,0,0,0,0,0,0,0,0.507,0.507,0.506,0.505,0.504,0,0,0,0,0,0,0,0,0,0,0,0,0,0,0,0,0,0,0,0,0,0,0,0,0,0,0,0,0,0,0,0.5,0.503,0,0,0.509,0.51,0.512,0.514,0.515,0.516,0.516,0.518,0.519,0.521,0.522,0.523,0.523,0,0,0,0,0,0.523,0,0,0,0,0,0,0,0,0,0,0,0,0,0,0,0,0,0,0,0.91,0.908,0.907,0,0.899,0,0,0,0,0,0,0
0.547,0.547,0.546,0.546,0.546,0.546,0.546,0.546,0.546,0.546,0.546,0.547,0.547,0.547,0.547,0.548,0.548,0.549,0.549,0.549,0.549,0.549,0.548,0.548,0.547,0.547,0.547,0.547,0.548,0.549,0.549,0.549,0.55,0.55,0.55,0.55,0.55,0.55,0.55,0.549,0.548,0.548,0.548,0.547,0.547,0.547,0.546,0.547,0.547,0.548,0.548,0.548,0.548,0.549,0.55,0.55,0.55,0.55,0.55,0.55,0.55,0.549,0.549,0.548,0.548,0.547,0.547,0.547,0.548,0.548,0.548,0.548,0.548,0.548,0.548,0.549,0.549,0.549,0.549,0.549,0.549,0.55,0.55,0.549,0.549,0.549,0.549,0.549,0.549,0.549,0.55,0.55,0.55,0.55,0.55,0.551,0.551,0.55,0.55,0.55,0.55,0.551,0.551,0.551,0.552,0.554,0.555,0.557,0.558,0.56,0.561,0.564,0.566,0.569,0.57,0.573,0.577,0.58,0.585,0.589,0.592,0.595,0.599,0.603,0.606,0,0,0,0,0,0,0,0,0,0,0,0,0,0,0,0,0,0,0.864,0.863,0.863,0.863,0.864,0.865,0.864,0.865,0.865,0.866,0.867,0.867,0.869,0.869,0.867,0.869,0.869,0.87,0.87,0.87,0.871,0.872,0.872,0.873,0.872,0.872,0.873,0.874,0.874,0.874,0.873,0.873,0.873,0.873,0.873,0.873,0.872,0.873,0.873,0.874,0.874,0.875,0.875,0.875,0.876,0.876,0.875,0.875,0.874,0.873,0.871,0.87,0.87,0.869,0.867,0.866,0.866,0.866,0.865,0.866,0.867,0.869,0.869,0.87,0.87,0.87,0.87,0.871,0.871,0.87,0.871,0.871,0.87,0.87,0.87,0.871,0.871,0.87,0.87,0.87,0.869,0.869,0.866,0.866,0.863,0.862,0.862,0.862,0.863,0.864,0.865,0.865,0.865,0.866,0.866,0.866,0.864,0,0,0,0,0,0,0,0,0,0,0,0,0,0,0,0,0,0,0,0,0,0,0,0,0,0,0,0,0,0,0.875,0.874,0.875,0.876,0.878,0.878,0.878,0.878,0.876,0.878,0.879,0.878,0.876,0.875,0.875,0.875,0,0,0.874,0.873,0.873,0.873,0.873,0,0,0,0,0,0,0,0,0,0,0,0,0,0,0,0,0,0,0,0,0,0,0,0,0,0,0,0,0,0,0,0,0,0,0,0,0,0,0,0,0,0,0,0,0.633,0.635,0.637,0,0.641,0.642,0.643,0.643,0.64,0.638,0.634,0.63,0.624,0.616,0.609,0.602,0,0,0,0,0,0.573,0.57,0.567,0.565,0.562,0.562,0.56,0.558,0.556,0.555,0.553,0.55,0,0,0,0,0,0.522,0.516,0.512,0.511,0.51,0.509,0,0,0,0,0,0,0,0,0,0,0,0,0,0,0,0,0,0,0,0,0,0,0,0,0,0,0,0,0,0,0,0,0,0,0,0,0,0,0,0,0,0,0,0,0.576,0.576,0.575,0.574,0,0,0,0,0,0,0,0,0,0,0,0,0,0,0,0,0,0,0,0,0,0.508,0.508,0.507,0.505,0.504,0.503,0.502,0.501,0.5,0.499,0.497,0.495,0,0.492,0,0.489,0.486,0,0,0,0,0,0,0,0,0,0,0,0,0.507,0,0.505,0.505,0.505,0.507,0.51,0,0,0,0,0,0,0,0,0,0,0,0,0,0,0,0,0,0,0,0,0,0,0,0,0,0,0,0,0,0,0,0,0,0.509,0.51,0.512,0.513,0.514,0.514,0.516,0.518,0.52,0.521,0.522,0.522,0.523,0.522,0.522,0,0,0,0.522,0.523,0,0,0,0,0,0,0,0,0,0,0,0,0,0,0,0,0,0,0,0.894,0,0,0,0,0,0,0,0,0,0
0.547,0.547,0.547,0.547,0.547,0.547,0.547,0.546,0.546,0.546,0.546,0.547,0.547,0.547,0.548,0.549,0.549,0.549,0.55,0.55,0.549,0.549,0.549,0.548,0.548,0.547,0.547,0.547,0.548,0.549,0.549,0.55,0.55,0.55,0.55,0.55,0.551,0.55,0.55,0.55,0.549,0.548,0.548,0.547,0.547,0.547,0.547,0.547,0.547,0.548,0.549,0.549,0.549,0.549,0.55,0.55,0.551,0.55,0.55,0.55,0.55,0.55,0.549,0.549,0.548,0.548,0.548,0.548,0.548,0.548,0.548,0.548,0.548,0.548,0.549,0.549,0.549,0.55,0.55,0.55,0.55,0.55,0.55,0.55,0.55,0.549,0.55,0.55,0.55,0.55,0.55,0.55,0.55,0.55,0.551,0.551,0.551,0.55,0.55,0.551,0.551,0.551,0.551,0.552,0.553,0.554,0.555,0.557,0.559,0.56,0.562,0.564,0.566,0.569,0.57,0.572,0.575,0.579,0.584,0.588,0.591,0.594,0.598,0.603,0.607,0.611,0,0,0,0,0,0,0,0,0,0,0,0,0,0,0,0,0,0.859,0.859,0.858,0.858,0.86,0.86,0.86,0.861,0.861,0.862,0.863,0.863,0.864,0.864,0.864,0.864,0.864,0.865,0.864,0.864,0.865,0.865,0.866,0.865,0.865,0.865,0.865,0.867,0.867,0.867,0.866,0.867,0.867,0.869,0.869,0.867,0.867,0.867,0.867,0.869,0.87,0.87,0.87,0.871,0.871,0.871,0.871,0.871,0.87,0.869,0.866,0.866,0.865,0.864,0.863,0.862,0.862,0.861,0.861,0.862,0.863,0.864,0.864,0.865,0.866,0.866,0.866,0.866,0.867,0.866,0.867,0.866,0.866,0.865,0.865,0.865,0.865,0.865,0.865,0.864,0.864,0.863,0.863,0.862,0.86,0.859,0.859,0.86,0.861,0.861,0.862,0.862,0,0.862,0.862,0.861,0.86,0,0,0,0,0,0,0,0,0,0,0,0,0,0,0,0,0,0,0,0,0,0,0,0,0,0,0,0,0,0.873,0.872,0.872,0.873,0.873,0.874,0.874,0.874,0.873,0.873,0.874,0.874,0.874,0.873,0.872,0.872,0.872,0.871,0,0.871,0.871,0.871,0.871,0.871,0,0,0,0,0,0,0,0,0,0,0,0,0,0,0,0,0,0,0,0,0,0,0,0,0,0,0,0,0,0,0,0,0,0,0,0,0,0,0,0,0,0,0,0,0.632,0.634,0.636,0,0.643,0.645,0.647,0.648,0.645,0.642,0.64,0.634,0.629,0.62,0.61,0,0,0,0,0,0,0,0,0,0,0.561,0.56,0.557,0.556,0.555,0.553,0.551,0.549,0.545,0.54,0,0,0,0,0,0,0,0,0,0,0,0,0,0,0,0,0,0,0,0,0,0,0,0,0,0,0,0,0,0,0,0,0,0,0,0,0,0,0,0,0,0,0,0,0,0,0,0,0,0,0,0,0,0,0,0,0,0,0,0,0,0,0,0,0,0,0,0,0,0,0,0,0,0,0,0,0,0,0,0,0,0.506,0.505,0,0.502,0.501,0.5,0.499,0.497,0.494,0.493,0.491,0.489,0.488,0.485,0.484,0.483,0,0.48,0,0,0,0,0,0,0,0,0,0,0.505,0.505,0,0.507,0.51,0.515,0,0,0,0.532,0.536,0.537,0.537,0,0,0,0,0,0,0,0,0,0,0,0,0,0,0,0,0,0,0,0,0,0,0,0,0,0.507,0.509,0.51,0.511,0.512,0.513,0.515,0.517,0.519,0.521,0.522,0.522,0.522,0.522,0.522,0.522,0.522,0,0.522,0.522,0,0,0,0,0,0,0,0,0,0,0,0,0,0,0,0,0,0,0,0,0,0,0,0,0,0,0,0,0,0.854
0.548,0.547,0.547,0.547,0.547,0.547,0.547,0.547,0.546,0.546,0.547,0.547,0.547,0.547,0.548,0.549,0.549,0.55,0.55,0.55,0.549,0.549,0.549,0.549,0.548,0.548,0.547,0.547,0.548,0.549,0.549,0.55,0.55,0.55,0.55,0.551,0.551,0.55,0.55,0.55,0.549,0.548,0.548,0.547,0.547,0.547,0.547,0.547,0.547,0.548,0.548,0.549,0.549,0.549,0.55,0.55,0.551,0.551,0.551,0.55,0.55,0.55,0.55,0.549,0.549,0.549,0.548,0.548,0.549,0.549,0.549,0.549,0.549,0.549,0.549,0.55,0.55,0.55,0.55,0.55,0.55,0.55,0.55,0.55,0.55,0.55,0.55,0.55,0.55,0.55,0.55,0.55,0.55,0.551,0.551,0.551,0.551,0.551,0.551,0.551,0.551,0.551,0.552,0.552,0.553,0.554,0.555,0.557,0.559,0.561,0.562,0.564,0.567,0.569,0.57,0.572,0.575,0.578,0.582,0.587,0,0,0.597,0.603,0,0,0,0,0,0,0,0,0,0,0,0,0,0,0,0,0,0,0,0,0,0,0,0.855,0.855,0.856,0.856,0.856,0.858,0.86,0.86,0.86,0.86,0.86,0.86,0.86,0.86,0.86,0.86,0.859,0.86,0.86,0.86,0.859,0.859,0.859,0.86,0.86,0.861,0.861,0.861,0.862,0.862,0.862,0.862,0.862,0.862,0.862,0.863,0.863,0.864,0.864,0.864,0.865,0.865,0.865,0.865,0.865,0.864,0.864,0.862,0.861,0.861,0.86,0.859,0.858,0.858,0.858,0.859,0.86,0.86,0.861,0.862,0.862,0.862,0.863,0.863,0.863,0.864,0.863,0.863,0.862,0.861,0.861,0.862,0.861,0.861,0.861,0.86,0.859,0.86,0.859,0.858,0.855,0.855,0.855,0.856,0.856,0.858,0.856,0,0,0,0.858,0.855,0,0,0,0,0,0,0,0,0,0,0,0,0,0,0,0,0,0,0,0,0,0,0,0,0,0,0,0,0,0,0.87,0.87,0.87,0.87,0.87,0.87,0.87,0.87,0.869,0.869,0.867,0.869,0.869,0.867,0.867,0.866,0.866,0.866,0.867,0.866,0.867,0.866,0.869,0.869,0,0,0,0,0,0,0,0,0,0,0,0,0,0,0,0,0,0,0,0,0,0,0,0,0,0,0,0,0,0,0,0,0,0,0,0,0,0,0,0,0,0,0.625,0.626,0.628,0.631,0.633,0,0.641,0.645,0.649,0.651,0.649,0.647,0.643,0.64,0.635,0,0,0,0,0,0.576,0.571,0.567,0.564,0.561,0.56,0.559,0.558,0.556,0.555,0.554,0.552,0.551,0,0.549,0,0,0.537,0.533,0.525,0.52,0,0,0,0,0,0,0,0,0,0,0,0,0,0,0,0,0,0,0,0,0,0,0,0,0,0,0,0,0,0,0,0,0,0,0,0,0,0,0,0,0,0,0,0,0,0,0,0,0,0,0,0,0,0,0,0,0,0,0,0,0,0,0,0,0,0,0,0,0,0,0,0,0,0,0,0,0,0,0,0.504,0.502,0.501,0.5,0.498,0.496,0.494,0.492,0.49,0.488,0.487,0.484,0.483,0.481,0.48,0.479,0.479,0,0,0,0,0,0,0,0,0,0.504,0.505,0.505,0.507,0.51,0.514,0.518,0.522,0.526,0.529,0.533,0.535,0.534,0.534,0.533,0.532,0,0,0,0,0,0,0,0,0,0,0,0,0,0,0,0,0,0,0,0,0,0,0.506,0.507,0.509,0.51,0.511,0.512,0.514,0.516,0.518,0.521,0.522,0.522,0.522,0.522,0.522,0.522,0.522,0.522,0.522,0.522,0.522,0,0,0,0,0,0,0,0,0,0,0,0,0,0,0,0,0,0,0,0,0,0,0,0.852,0.849,0.848,0.848,0.85,0.852
0.548,0.548,0.547,0.547,0.547,0.547,0.547,0.547,0.547,0.547,0.547,0.547,0.547,0.548,0.548,0.549,0.549,0.55,0.55,0.55,0.55,0.549,0.549,0.549,0.548,0.548,0.548,0.548,0.548,0.548,0.549,0.55,0.55,0.55,0.55,0.55,0.55,0.55,0.55,0.55,0.549,0.548,0.548,0.547,0.547,0.547,0.547,0.547,0.547,0.548,0.548,0.549,0.549,0.55,0.55,0.551,0.551,0.55,0.55,0.55,0.55,0.55,0.55,0.55,0.549,0.549,0.549,0.549,0.549,0.55,0.55,0.55,0.55,0.55,0.55,0.55,0.55,0.55,0.55,0.55,0.551,0.551,0.551,0.551,0.551,0.551,0.551,0.551,0.551,0.551,0.551,0.551,0.551,0.551,0.551,0.551,0.551,0.551,0.551,0.551,0.551,0.552,0.552,0.552,0.552,0.554,0.555,0.557,0.559,0.561,0.562,0.565,0.567,0.569,0.57,0.572,0.575,0.579,0.582,0,0,0,0,0,0,0,0,0,0,0,0,0,0,0,0,0,0,0,0,0,0,0,0,0,0,0,0.849,0.85,0.851,0.851,0.852,0.853,0.854,0.855,0.856,0.856,0.856,0.855,0.856,0.856,0.856,0.855,0.855,0.855,0.855,0.855,0.855,0.855,0.854,0.853,0.854,0.855,0.855,0.855,0.855,0.855,0.856,0.856,0.856,0.856,0.856,0.856,0.858,0.858,0.858,0.858,0.858,0.859,0.86,0.86,0.861,0.861,0.86,0.859,0.859,0.858,0.856,0.855,0.854,0.853,0.853,0.854,0.855,0.856,0.856,0.858,0.858,0.858,0.859,0.859,0.859,0.86,0.86,0.86,0.859,0.858,0.858,0.858,0.858,0.856,0.856,0.856,0.855,0.855,0.855,0.855,0.854,0.853,0.852,0.852,0.852,0.853,0.852,0.851,0.852,0,0.853,0.852,0.851,0,0,0,0,0,0,0,0,0,0,0,0,0,0,0,0,0,0,0,0,0,0,0,0,0,0,0,0,0,0.867,0.866,0.866,0.866,0.866,0.865,0.865,0.864,0.864,0.863,0.863,0.863,0.863,0.863,0.863,0.862,0.862,0.862,0.862,0.863,0.864,0.863,0.864,0.865,0.865,0,0,0,0,0,0,0,0,0,0,0,0,0,0,0,0,0,0,0,0,0,0,0,0,0,0,0,0,0,0,0,0,0,0,0,0,0,0,0,0,0,0,0,0.623,0.625,0.627,0.63,0,0.64,0.645,0.649,0.653,0.652,0.65,0,0,0,0,0,0,0,0.572,0.569,0.564,0.56,0.559,0.557,0.556,0.555,0.555,0.554,0.553,0.552,0.551,0.551,0,0,0,0,0,0,0,0,0,0,0,0,0,0,0,0,0,0,0,0,0,0,0,0,0,0,0,0,0,0,0,0,0,0,0,0,0,0,0,0,0,0,0,0,0,0,0,0,0,0,0,0,0,0,0,0,0,0,0,0,0,0,0,0,0,0,0,0,0,0,0,0,0,0,0,0,0,0,0,0,0,0,0,0,0,0,0,0.504,0.503,0.501,0.5,0.498,0.495,0.493,0.491,0.489,0.488,0.486,0.484,0.482,0.481,0.479,0.478,0,0,0,0,0,0,0,0,0,0,0.504,0.505,0.505,0.507,0.509,0.513,0.516,0.519,0.523,0.526,0.53,0.531,0.532,0.533,0.532,0.531,0.531,0,0,0,0,0,0,0,0,0,0,0,0,0,0,0,0,0,0,0,0,0,0,0,0.506,0.507,0.509,0.51,0.512,0.514,0.518,0.52,0.522,0.522,0.522,0.522,0.522,0.522,0.522,0.522,0.522,0.522,0,0,0,0,0,0,0,0,0,0,0,0,0,0,0,0,0,0,0,0,0,0,0.852,0.849,0.848,0.847,0.848,0.848,0.849,0.852
0.549,0.548,0.548,0.548,0.548,0.548,0.548,0.548,0.547,0.547,0.547,0.547,0.548,0.548,0.548,0.549,0.549,0.55,0.55,0.55,0.55,0.55,0.55,0.549,0.548,0.548,0.548,0.548,0.548,0.549,0.549,0.55,0.55,0.55,0.55,0.55,0.55,0.55,0.55,0.55,0.549,0.548,0.548,0.548,0.547,0.547,0.547,0.548,0.548,0.549,0.549,0.549,0.549,0.55,0.55,0.55,0.55,0.55,0.55,0.55,0.55,0.55,0.55,0.55,0.55,0.55,0.55,0.55,0.55,0.55,0.55,0.55,0.55,0.55,0.55,0.55,0.55,0.55,0.55,0.551,0.551,0.551,0.552,0.552,0.551,0.551,0.552,0.552,0.552,0.552,0.551,0.551,0.551,0.551,0.552,0.552,0.552,0.552,0.551,0.551,0.551,0.552,0.552,0.552,0.552,0.553,0.555,0.557,0.558,0.56,0.562,0.564,0.567,0.569,0.57,0.572,0.575,0.579,0.583,0,0,0,0,0,0,0,0,0,0,0,0,0,0,0,0,0,0,0,0,0,0,0,0,0,0,0,0,0,0.846,0.846,0.847,0.849,0.85,0.852,0.853,0.853,0.853,0.853,0.853,0.852,0.852,0.851,0.851,0.85,0.85,0.85,0.85,0.85,0.849,0.849,0.85,0.85,0.85,0.85,0.85,0.85,0.85,0.851,0.852,0.851,0.851,0.851,0.851,0.851,0.852,0.852,0.853,0.853,0.854,0.855,0.856,0.856,0.855,0.854,0.855,0.853,0.853,0.852,0.851,0.85,0.85,0.851,0.852,0.852,0.853,0.853,0.854,0.854,0.855,0.855,0.855,0.855,0.856,0.855,0.854,0.854,0.853,0.853,0.853,0.853,0.852,0.853,0.853,0.852,0.852,0.851,0.85,0.849,0.848,0.848,0.848,0.847,0.847,0.847,0.847,0.848,0.848,0.847,0.847,0.847,0,0,0,0,0,0,0,0,0,0,0,0,0,0,0,0,0,0,0,0,0,0,0,0,0,0,0,0.861,0.861,0.861,0.862,0.862,0.861,0.861,0.86,0.859,0.858,0.858,0.856,0.856,0.856,0.856,0.856,0.855,0.856,0.858,0.858,0.859,0.86,0.86,0.86,0,0,0,0,0,0,0,0,0,0,0,0,0,0,0,0,0,0,0,0,0,0,0,0,0,0,0,0,0,0,0,0,0,0,0,0,0,0,0,0,0,0,0,0,0,0.623,0.625,0,0.63,0,0,0,0.65,0.656,0.655,0,0,0,0,0,0,0,0,0,0.558,0.554,0,0.551,0,0,0,0,0.55,0.55,0.539,0,0,0,0,0,0,0,0,0,0,0,0,0,0,0,0,0,0,0,0,0,0,0,0,0,0,0,0,0,0,0,0,0,0,0,0,0,0,0,0,0,0,0,0,0,0,0,0,0,0,0.507,0.509,0,0,0,0,0,0,0,0,0,0,0,0,0,0,0,0,0,0,0,0,0,0,0,0,0,0,0,0,0,0,0,0,0,0,0,0,0,0.504,0.503,0.501,0.5,0.498,0.496,0.494,0.491,0.489,0.487,0.485,0.483,0.481,0.479,0.478,0.477,0.476,0,0,0,0,0,0,0,0,0,0.504,0.504,0.505,0.507,0.509,0.512,0.514,0.518,0.521,0.524,0.527,0.529,0.531,0.531,0.531,0.532,0.532,0.531,0,0,0,0,0,0,0,0,0,0,0,0,0,0,0,0,0,0,0,0,0,0,0,0.504,0,0,0,0,0,0,0.521,0.522,0.522,0.521,0.521,0.522,0.522,0.522,0.521,0.522,0,0,0,0,0,0,0,0,0,0,0,0,0,0,0,0,0,0,0,0,0,0,0.847,0.847,0.845,0.846,0.847,0.847,0.848,0.85
0.549,0.549,0.549,0.548,0.548,0.548,0.548,0.548,0.548,0.547,0.547,0.548,0.548,0.548,0.548,0.549,0.549,0.55,0.55,0.55,0.55,0.55,0.55,0.55,0.549,0.548,0.548,0.548,0.548,0.549,0.549,0.55,0.55,0.55,0.551,0.55,0.55,0.55,0.55,0.55,0.549,0.549,0.549,0.548,0.548,0.548,0.548,0.549,0.549,0.549,0.549,0.55,0.55,0.55,0.55,0.55,0.55,0.55,0.55,0.55,0.55,0.55,0.55,0.55,0.55,0.55,0.55,0.55,0.55,0.55,0.55,0.55,0.55,0.55,0.55,0.55,0.55,0.55,0.55,0.551,0.551,0.551,0.552,0.552,0.552,0.552,0.552,0.552,0.552,0.552,0.552,0.552,0.552,0.552,0.552,0.552,0.552,0.552,0.552,0.552,0.552,0.552,0.552,0.552,0.552,0.553,0.555,0.556,0.558,0.56,0.562,0.564,0.567,0.569,0.57,0.572,0.575,0.578,0,0,0,0,0,0,0,0,0,0,0,0,0,0,0,0,0,0,0,0,0,0,0,0,0,0,0,0.835,0.835,0.837,0.839,0.84,0.841,0.845,0.846,0.849,0.85,0.85,0.85,0.851,0.849,0.849,0.849,0.847,0.847,0.847,0.846,0.847,0.846,0.846,0.845,0.845,0.846,0.846,0.846,0.846,0.845,0.846,0.846,0.846,0.847,0.846,0.846,0.846,0.847,0.847,0.847,0.848,0.848,0.849,0.849,0.85,0.851,0.851,0.85,0.851,0.851,0.85,0.85,0.849,0.847,0.847,0.848,0.849,0.849,0.85,0.85,0.85,0.851,0.851,0.851,0.852,0.852,0.852,0.851,0.851,0.85,0.849,0.849,0.849,0.85,0.849,0.849,0.85,0.849,0.848,0.848,0.848,0.846,0.845,0.844,0.844,0.843,0.843,0.843,0.843,0.843,0.841,0.843,0.843,0.841,0.841,0.841,0,0,0,0,0,0,0,0,0,0,0,0,0,0,0,0,0,0,0,0,0,0,0,0,0,0,0.854,0.855,0.855,0.856,0.856,0.855,0.855,0.854,0.853,0.852,0.851,0.85,0.85,0.85,0.85,0.85,0.85,0.851,0.853,0.853,0.855,0.856,0.856,0,0,0,0,0,0,0,0,0,0,0,0,0,0,0,0,0,0,0,0,0,0,0,0,0,0,0,0,0,0,0,0,0,0,0,0,0,0,0,0,0,0,0,0,0,0,0.623,0.625,0.627,0.629,0,0,0,0,0.655,0.656,0.656,0.655,0,0,0,0,0,0,0,0,0.547,0.546,0.546,0,0,0,0,0,0,0,0,0.529,0.526,0,0,0,0,0,0,0,0,0,0,0,0,0,0,0,0,0,0,0,0,0,0,0,0,0,0,0,0,0,0,0,0,0,0,0,0,0,0,0,0,0,0,0,0,0,0.503,0,0.507,0.508,0.51,0.513,0,0,0,0,0,0,0,0,0,0,0,0,0,0,0,0,0,0,0,0,0,0,0,0,0,0,0,0,0,0,0,0,0,0,0,0.505,0.504,0.502,0.501,0.498,0.497,0.494,0.492,0.489,0.487,0.485,0.483,0.481,0.479,0.478,0.476,0.475,0,0,0,0,0,0,0,0,0,0.504,0.504,0.505,0.507,0.509,0.512,0.514,0.516,0.52,0.522,0.525,0.527,0.529,0.53,0.531,0.532,0.533,0.533,0,0,0,0,0,0,0,0,0,0,0,0,0,0,0,0,0,0,0,0,0,0,0,0,0.504,0,0,0,0,0.518,0,0.521,0.521,0.521,0.521,0.521,0.521,0.521,0.521,0.521,0,0,0,0,0,0,0,0,0,0,0,0,0,0,0,0,0,0,0.845,0,0.846,0.845,0.845,0.845,0.845,0.845,0.846,0.846,0.847,0.847
0.55,0.549,0.549,0.549,0.549,0.549,0.549,0.548,0.548,0.548,0.548,0.548,0.548,0.548,0.548,0.549,0.55,0.55,0.55,0.55,0.55,0.55,0.55,0.55,0.549,0.549,0.549,0.549,0.549,0.549,0.55,0.55,0.55,0.551,0.551,0.551,0.551,0.55,0.55,0.55,0.55,0.55,0.549,0.549,0.549,0.549,0.549,0.55,0.55,0.55,0.55,0.55,0.55,0.55,0.551,0.551,0.551,0.55,0.55,0.55,0.551,0.551,0.551,0.551,0.551,0.551,0.55,0.55,0.55,0.55,0.55,0.55,0.549,0.549,0.549,0.549,0.55,0.55,0.55,0.551,0.551,0.551,0.552,0.552,0.552,0.552,0.552,0.553,0.553,0.553,0.552,0.552,0.552,0.552,0.553,0.553,0.552,0.552,0.552,0.552,0.552,0.552,0.551,0.552,0.552,0.553,0.555,0.556,0.558,0.56,0.562,0.564,0.566,0.569,0.57,0.572,0.575,0.577,0.58,0,0.587,0,0,0,0,0,0,0,0,0,0,0,0,0,0,0,0,0,0,0,0,0,0,0,0,0.83,0.831,0.832,0.835,0.836,0.837,0.839,0.841,0.844,0.845,0.845,0.846,0.845,0.845,0.844,0.844,0.843,0.843,0.843,0.843,0.843,0.843,0.841,0.841,0.84,0.841,0.841,0.841,0.841,0.841,0.841,0.843,0.843,0.844,0.843,0.843,0.843,0.843,0.843,0.844,0.843,0.844,0.845,0.845,0.845,0.846,0.846,0.846,0.846,0.846,0.846,0.845,0.845,0.844,0.844,0.845,0.846,0.847,0.847,0.848,0.848,0.848,0.848,0.848,0.848,0.848,0.848,0.846,0.846,0.845,0.845,0.844,0.844,0.844,0.844,0.845,0.845,0.844,0.844,0.843,0.843,0.841,0.84,0.839,0.838,0.838,0.838,0.838,0.838,0.837,0.837,0.837,0.837,0.837,0.837,0,0,0,0,0,0,0,0,0,0,0,0,0,0,0,0,0,0,0,0,0,0,0.731,0.735,0,0,0,0.849,0.849,0.85,0.851,0.85,0.85,0.85,0.849,0.848,0.847,0.846,0.845,0.845,0.845,0.846,0.846,0.846,0.848,0.849,0.851,0.852,0.853,0.854,0.856,0,0,0,0,0,0,0,0,0,0,0,0,0,0,0,0,0,0,0,0,0,0,0,0,0,0,0,0,0,0,0,0,0,0,0,0,0,0,0,0,0,0,0,0,0.623,0.623,0.625,0.627,0.628,0,0,0,0,0,0.659,0,0,0,0,0,0,0,0,0,0,0,0.543,0.543,0,0,0,0.538,0.531,0,0,0,0.518,0,0,0,0,0,0,0,0,0,0,0,0,0,0,0,0,0,0,0,0,0,0,0,0,0,0,0,0,0,0,0,0,0,0,0,0,0,0,0,0,0,0,0,0,0,0.502,0.504,0.506,0.507,0.509,0.51,0.513,0.513,0,0,0,0,0,0,0,0,0,0,0,0,0,0,0,0,0,0,0,0,0,0,0,0,0,0,0,0,0,0,0,0,0,0.507,0.506,0.504,0.502,0.501,0.499,0.497,0.495,0.493,0.49,0.488,0.485,0.483,0.481,0.479,0.477,0.476,0.474,0.474,0,0,0,0,0,0,0,0,0,0.504,0.505,0.507,0.509,0.511,0.512,0.515,0.517,0.52,0.522,0.525,0.526,0.528,0.529,0.531,0.532,0.533,0,0,0,0,0,0,0,0,0,0,0,0,0,0,0,0,0,0,0,0,0,0,0,0,0,0,0,0,0,0,0,0,0.521,0.521,0.52,0.521,0.52,0.521,0.52,0.52,0,0,0,0,0,0,0,0,0,0,0,0,0,0,0,0,0,0,0.845,0.844,0.844,0.844,0.844,0.843,0.843,0.843,0.844,0.844,0.845,0.845
0.55,0.55,0.55,0.549,0.549,0,0,0,0.548,0.548,0.548,0.548,0.548,0.549,0.549,0.549,0.55,0.55,0.55,0.55,0.55,0.55,0.55,0.55,0.55,0.549,0.549,0.549,0.549,0.55,0.55,0.55,0.55,0.55,0.55,0.55,0.55,0.55,0.55,0.55,0.55,0.55,0.55,0.55,0.55,0.55,0.55,0.55,0.55,0.55,0.55,0.55,0.55,0.551,0.551,0.551,0.551,0.55,0.55,0.55,0.551,0.551,0.551,0.551,0.551,0.551,0.551,0.551,0.55,0.55,0.55,0.549,0.549,0.549,0.549,0.549,0.55,0.55,0.55,0.551,0.551,0.552,0.552,0.552,0.553,0.553,0.553,0.553,0.554,0.553,0.553,0.553,0.553,0.553,0.553,0.553,0.552,0.552,0.552,0.552,0.552,0.552,0.552,0.552,0.552,0.553,0.555,0.556,0.558,0.559,0.561,0.564,0.567,0.569,0.57,0.572,0.575,0.577,0.58,0.583,0.587,0.591,0.6,0,0,0,0,0,0,0,0,0,0,0,0,0,0,0,0,0,0,0,0,0,0,0.827,0.828,0.829,0.831,0.832,0.833,0.834,0.836,0.837,0.838,0.839,0.839,0.839,0.838,0.838,0.838,0.838,0.838,0.838,0.838,0.839,0.838,0.838,0.837,0.836,0.837,0.837,0.838,0.837,0.837,0.837,0.838,0.839,0.84,0.839,0.839,0.839,0.839,0.839,0.838,0.838,0.839,0.839,0.839,0.84,0.84,0.84,0.84,0.84,0.84,0.839,0.84,0.839,0.839,0.839,0.839,0.84,0.843,0.844,0.845,0.845,0.845,0.846,0.845,0.846,0.845,0.844,0.843,0.84,0.839,0.838,0.837,0.838,0.838,0.837,0.839,0.839,0.839,0.839,0.838,0.838,0.837,0.835,0.835,0.834,0.834,0.834,0.834,0.834,0.833,0.834,0.834,0.833,0.832,0.832,0,0,0,0,0,0,0,0,0,0,0,0,0,0,0,0,0,0,0,0,0.73,0.73,0.734,0,0,0,0.839,0.844,0.845,0.845,0.845,0.846,0.845,0.845,0.844,0.843,0.841,0.839,0.839,0.838,0.838,0.839,0.839,0.84,0.843,0.846,0.847,0.848,0.85,0.852,0.853,0,0,0,0,0,0,0,0,0,0,0,0,0,0,0,0,0,0,0,0,0,0,0,0,0,0,0,0,0,0,0,0,0,0,0,0,0,0,0,0,0,0,0,0,0.623,0.623,0.624,0.625,0.626,0,0,0,0,0,0,0,0,0,0,0,0,0,0,0,0,0,0,0.538,0.538,0,0.536,0,0,0,0,0,0,0,0,0,0,0,0,0,0,0,0,0,0,0,0,0,0,0,0,0,0,0,0,0,0,0,0,0,0,0,0,0,0,0,0,0,0,0,0,0,0,0,0,0,0,0,0.502,0.504,0.505,0.507,0.508,0.509,0.512,0.513,0.513,0,0,0,0,0,0,0,0,0,0,0,0,0,0,0,0,0,0,0,0,0,0,0,0,0,0,0,0,0,0,0,0,0,0.507,0,0,0.502,0.501,0.498,0.496,0.493,0.491,0.488,0.486,0.484,0.481,0.479,0.477,0.475,0.474,0.473,0.472,0,0,0,0,0,0,0,0,0,0.505,0.506,0.507,0.509,0.51,0.512,0.514,0.516,0.518,0.521,0.523,0,0,0.529,0.532,0.532,0,0,0,0,0,0,0,0,0,0,0,0,0,0,0,0,0,0,0,0,0,0,0,0,0,0,0,0,0,0.517,0.52,0.52,0.52,0.52,0.52,0.52,0.52,0.52,0.52,0,0,0,0,0,0,0,0,0,0,0,0,0,0,0,0,0,0,0,0.845,0.844,0.843,0.843,0.841,0.84,0.84,0.84,0.841,0.841,0.843,0.843
0.55,0.55,0.55,0.549,0.549,0.549,0,0.549,0.549,0.549,0.549,0.548,0.549,0.549,0.55,0.55,0.55,0.551,0.551,0.551,0.551,0.55,0.55,0.55,0.55,0.549,0.549,0.549,0.55,0.55,0.55,0.55,0.55,0.55,0.55,0.55,0.55,0.55,0.55,0.55,0.551,0.551,0.551,0.551,0.551,0.55,0.551,0.551,0.551,0.551,0.551,0.551,0.551,0.551,0.551,0.551,0.551,0.551,0.55,0.55,0.551,0.551,0.551,0.552,0.552,0.551,0.551,0.551,0.551,0.55,0.55,0.549,0.549,0.549,0.549,0.55,0.55,0.55,0.551,0.551,0.552,0.552,0.553,0.553,0.553,0.553,0.554,0.554,0.554,0.554,0.554,0.553,0.553,0.553,0.553,0.553,0.552,0.552,0.552,0.552,0.552,0.552,0.552,0.552,0.552,0.554,0.555,0.556,0.558,0.559,0.561,0.564,0.566,0.569,0.57,0.572,0.575,0.577,0.58,0.583,0.587,0.593,0.602,0,0,0,0,0,0,0,0,0,0,0,0,0,0,0,0,0,0,0,0,0.819,0.824,0.825,0.825,0.826,0.828,0.829,0.829,0.83,0.831,0,0,0,0,0,0,0.832,0.833,0.833,0.833,0.833,0.834,0.835,0.834,0.833,0.833,0.832,0.833,0.833,0.833,0.833,0.833,0.833,0.834,0.835,0.837,0.836,0.835,0.835,0.835,0.835,0.834,0.834,0.834,0.834,0.835,0.835,0.835,0.835,0.835,0.835,0.835,0.834,0.834,0.834,0,0,0,0.836,0.837,0.839,0.84,0.841,0.843,0.844,0.843,0.843,0.843,0.84,0.838,0.836,0.834,0.834,0.833,0.833,0.833,0.832,0.833,0.834,0.833,0,0,0,0.833,0.832,0.831,0.831,0.831,0.83,0.83,0.829,0.828,0.828,0.829,0.828,0.828,0,0,0,0,0,0,0,0,0,0,0,0,0,0,0,0,0,0,0,0,0.732,0.734,0.736,0,0,0,0.8,0,0,0.838,0.838,0.839,0.84,0.839,0.839,0.838,0.837,0.835,0.834,0.834,0.833,0.833,0.833,0.834,0.835,0.837,0.84,0.843,0.844,0.847,0.848,0,0,0,0,0,0,0,0,0,0,0,0,0,0,0,0,0,0,0,0,0,0,0,0,0,0,0,0,0,0,0,0,0,0,0,0,0,0,0,0,0,0,0,0,0,0,0.623,0.623,0.623,0.624,0.625,0.628,0,0,0,0,0,0,0,0,0,0,0,0,0,0,0,0,0.533,0.533,0.532,0.531,0.528,0,0,0,0,0,0,0,0,0,0,0,0,0,0,0,0,0,0,0,0,0,0,0,0,0,0,0,0,0,0,0,0,0,0,0,0,0,0,0,0,0,0,0,0,0,0,0,0,0,0,0.502,0.504,0,0.507,0.509,0.51,0.512,0.513,0.513,0.513,0,0,0,0,0,0,0,0,0,0,0,0,0,0,0,0,0,0,0,0,0,0,0,0,0,0,0,0,0,0,0,0,0,0,0.506,0.504,0.502,0.501,0.498,0.495,0.492,0.489,0.487,0.484,0.482,0.479,0.476,0.475,0.474,0.472,0.471,0.47,0.469,0,0,0,0,0,0,0,0.505,0.506,0.507,0.508,0.509,0.509,0.511,0.512,0.514,0.516,0,0,0,0,0,0,0,0,0,0,0,0,0,0,0,0,0,0,0,0,0,0,0,0,0,0,0,0,0,0,0,0,0,0,0,0,0,0.52,0.52,0.52,0.52,0.52,0.52,0.52,0,0,0,0,0,0,0,0,0,0,0,0,0,0,0,0,0,0,0,0,0.845,0.843,0.841,0.84,0.839,0.839,0.838,0.838,0.839,0.839,0.839,0.839
0.55,0.55,0.55,0.55,0.55,0.55,0.549,0,0.549,0.549,0.549,0.549,0.549,0.55,0,0.55,0.551,0.552,0.552,0.551,0.551,0.55,0.55,0.55,0.55,0.55,0.55,0.55,0.55,0.55,0.55,0.55,0.55,0.55,0.55,0.55,0.55,0.55,0.55,0.551,0.551,0.552,0.552,0.552,0.552,0.552,0.552,0.552,0.552,0.552,0.552,0.552,0.552,0.552,0.552,0.552,0.551,0.551,0.551,0.55,0.551,0.551,0.552,0.552,0.552,0.552,0.552,0.551,0.551,0.55,0.55,0.55,0.549,0.549,0.549,0.55,0.55,0.55,0.551,0.551,0.552,0.552,0.553,0.553,0.554,0.554,0.554,0.555,0.555,0.554,0.554,0.554,0.554,0.554,0.554,0.553,0.553,0.552,0.552,0.552,0.552,0.552,0.552,0.552,0.553,0.554,0.555,0.556,0.558,0.559,0.561,0.564,0.566,0.568,0.57,0.572,0.575,0.577,0.58,0.583,0.587,0,0,0,0,0,0,0,0,0,0,0,0,0,0,0,0,0,0,0,0,0,0,0,0.823,0.823,0.823,0.824,0.826,0.826,0.826,0.827,0.827,0,0,0,0,0,0.826,0.826,0.826,0.827,0.827,0.828,0.829,0.829,0.83,0.829,0.828,0.827,0.828,0.828,0.829,0.829,0.828,0.829,0.83,0.831,0.832,0.832,0.831,0.83,0.83,0.831,0.83,0.829,0.83,0.83,0.83,0.83,0.83,0.83,0.83,0.831,0.831,0.83,0.829,0,0,0,0,0.83,0.833,0.834,0.837,0.837,0.838,0.84,0.839,0.839,0.839,0.837,0.835,0.833,0.83,0.829,0.828,0.827,0.827,0.828,0.828,0.829,0.829,0,0,0,0.829,0.828,0.828,0.827,0.827,0.827,0.826,0.825,0.825,0.824,0.824,0.824,0.822,0.821,0,0,0,0,0,0,0,0,0,0,0,0,0,0,0,0,0,0.734,0.734,0.734,0.736,0.74,0.747,0,0,0,0.816,0.827,0.832,0.833,0.834,0.835,0.835,0.835,0.833,0.832,0.831,0.83,0.829,0.828,0.828,0.829,0.829,0.83,0.833,0.836,0.837,0,0,0,0,0,0,0,0,0,0,0,0,0,0,0,0,0,0,0,0,0,0,0,0,0,0,0,0,0,0,0,0,0,0,0,0,0,0,0,0,0,0,0,0,0,0,0,0,0,0.622,0.622,0.622,0.622,0.623,0.625,0.628,0.633,0,0,0,0,0,0,0,0,0,0,0,0,0,0,0.532,0.531,0.531,0.53,0.526,0,0,0,0,0,0,0,0,0,0,0,0,0,0,0,0,0,0,0,0,0,0,0,0,0,0,0,0,0,0,0,0,0,0,0,0,0,0,0,0,0,0,0,0,0,0,0,0,0,0,0,0.503,0,0.507,0.509,0.51,0.512,0.513,0,0.513,0,0,0,0,0,0,0,0,0,0,0,0,0,0,0,0,0,0,0,0,0,0,0,0,0,0,0,0,0,0,0,0,0,0,0,0.505,0.503,0.502,0.5,0.497,0.494,0.491,0.488,0.485,0.482,0.479,0.475,0.474,0.473,0.472,0.471,0.47,0.468,0.467,0,0,0,0,0,0,0.505,0.505,0.506,0.507,0.507,0.508,0.508,0.509,0.51,0.511,0,0,0,0,0,0,0,0,0,0,0,0,0,0,0,0,0,0,0,0,0,0,0,0,0,0,0,0,0,0,0,0,0,0,0,0,0,0,0,0,0,0,0,0,0,0,0,0,0,0,0,0,0,0,0,0,0,0,0,0,0,0,0,0,0,0.843,0.84,0.839,0.838,0.837,0.836,0.836,0.836,0.837,0.836,0.836
0.55,0.55,0.55,0.55,0.55,0.55,0.55,0.55,0.55,0.55,0.55,0.55,0.55,0.55,0.55,0.551,0.552,0.552,0.552,0.552,0.551,0.551,0.551,0.55,0.55,0.55,0.55,0.55,0.55,0.55,0.55,0.55,0.55,0.55,0.55,0.55,0.55,0.55,0.55,0.551,0.551,0.552,0.553,0.553,0.553,0.552,0.552,0.552,0.552,0.552,0.552,0.552,0.552,0.552,0.552,0.552,0.552,0.551,0.551,0.551,0.551,0.551,0.552,0.552,0.552,0.552,0.552,0.551,0.551,0.55,0.55,0.549,0.549,0.549,0.549,0.55,0.55,0.551,0.551,0.551,0.552,0.553,0.553,0.554,0.554,0.554,0.554,0.555,0.555,0.555,0.554,0.554,0.554,0.555,0.554,0.554,0.553,0.553,0.552,0.552,0.552,0.552,0.552,0.552,0.553,0.554,0.555,0.556,0.557,0.559,0.561,0.563,0.566,0.568,0.57,0.572,0.575,0.577,0.579,0.583,0,0,0,0,0,0,0,0,0,0,0,0,0,0,0,0,0,0,0,0,0,0,0,0,0.821,0.82,0.821,0.822,0.822,0.823,0.824,0.824,0.824,0.824,0.824,0.823,0.823,0.822,0.821,0.82,0.821,0.821,0.823,0.823,0.823,0.824,0.824,0.824,0.823,0.822,0.823,0.824,0.824,0.824,0.824,0.824,0.825,0.827,0.828,0.828,0.827,0.826,0.826,0.826,0.825,0.825,0.825,0.825,0.825,0.824,0.825,0.825,0.825,0.826,0.826,0.825,0.824,0.824,0,0,0,0.826,0.827,0.829,0.831,0.833,0.834,0.835,0.835,0.835,0.834,0.832,0.83,0.828,0.825,0.824,0.823,0.823,0.823,0.823,0.824,0.824,0.824,0.824,0,0.825,0.825,0.824,0.824,0.823,0.823,0.823,0.822,0.822,0.821,0.821,0.821,0.819,0.818,0.816,0.815,0,0,0,0,0,0,0,0,0,0,0,0,0,0,0,0.738,0.738,0.737,0.736,0.739,0.744,0,0,0,0,0,0.824,0.827,0.828,0.829,0.83,0.83,0.829,0.828,0.828,0.826,0.825,0.824,0.824,0.824,0.824,0.825,0.826,0.828,0.83,0.833,0,0,0,0,0,0,0,0,0,0,0,0,0,0,0,0,0,0,0,0,0,0,0,0,0,0,0,0,0,0,0,0,0,0,0,0,0,0,0,0,0,0,0,0,0,0,0,0,0,0.622,0.622,0.622,0.621,0,0,0,0,0,0,0,0,0,0,0,0,0,0,0,0,0,0.533,0.531,0.531,0.53,0.529,0.526,0,0,0,0,0,0,0,0,0,0,0,0,0,0,0,0,0,0,0,0,0,0,0,0,0,0,0,0,0,0,0,0,0,0,0,0,0,0,0,0,0,0,0,0,0,0,0,0,0,0,0,0,0.505,0.507,0.508,0.509,0.511,0.512,0,0.512,0.513,0,0,0,0,0,0,0,0,0,0,0,0,0,0,0,0,0,0,0,0,0,0,0,0,0,0,0,0,0,0,0,0,0,0,0,0,0,0.502,0.499,0.496,0.492,0.49,0.486,0.483,0.479,0.475,0.473,0.472,0.471,0.47,0.469,0.468,0.467,0.466,0,0,0,0,0,0,0.505,0.505,0.506,0.506,0.506,0.506,0.506,0.507,0,0,0,0,0,0,0,0,0,0,0,0,0,0,0,0,0,0,0,0,0,0,0,0,0,0,0,0,0,0,0,0,0,0,0,0,0,0,0,0,0,0,0,0,0,0,0,0,0,0,0,0,0,0,0,0,0,0,0,0,0,0,0,0,0,0,0,0.839,0.837,0.837,0.835,0.834,0.833,0.833,0.833,0.833,0.833
0.55,0.55,0.55,0.55,0.55,0.55,0.55,0.55,0.55,0.55,0.55,0.55,0.55,0.55,0.551,0.552,0.552,0.553,0.552,0.552,0.551,0.551,0.551,0.55,0.55,0.55,0.55,0.55,0.55,0.55,0.55,0.55,0.55,0.55,0.55,0.55,0.55,0.55,0.551,0.551,0.552,0.553,0.553,0.554,0.553,0.553,0.553,0.553,0.553,0.553,0.553,0.553,0.552,0.552,0.552,0.552,0.552,0.551,0.551,0.551,0.551,0.551,0.552,0.552,0.553,0.552,0.552,0.551,0.551,0.55,0.55,0.55,0.549,0.549,0.549,0.55,0.55,0.551,0.551,0.552,0.552,0.553,0.554,0.554,0.554,0.554,0.555,0.555,0.555,0.555,0.555,0.555,0.555,0.555,0.554,0.554,0.554,0.553,0.552,0.552,0.552,0.552,0.552,0.552,0.553,0.554,0.555,0.556,0.558,0.559,0.561,0.563,0.565,0.568,0.569,0.572,0.574,0.577,0.579,0.582,0,0,0,0,0,0,0,0,0,0,0,0,0,0,0,0,0,0,0,0,0,0,0,0,0.819,0.819,0.819,0.82,0.821,0.821,0.822,0.822,0.822,0.821,0.82,0.82,0.819,0.818,0.818,0.817,0.817,0.818,0.818,0.818,0.819,0.82,0.82,0.819,0.819,0.818,0.818,0.819,0.82,0.82,0.819,0.82,0.821,0.822,0.823,0.824,0.824,0.822,0.823,0.822,0.822,0.821,0.821,0.821,0.82,0.82,0.82,0.82,0.821,0.821,0.821,0.82,0.82,0.82,0.82,0.821,0.821,0.821,0.823,0.825,0.827,0.829,0.83,0.83,0.831,0.83,0.83,0.828,0.826,0.823,0.821,0.82,0.819,0.819,0.819,0.819,0.819,0.82,0.82,0.82,0.82,0.821,0.82,0.82,0.82,0.819,0.819,0.819,0.818,0.818,0.818,0.817,0.817,0.816,0.814,0.812,0.81,0.808,0,0,0,0,0,0,0,0,0,0,0,0,0,0,0.744,0.742,0.742,0.741,0.745,0,0.761,0,0,0,0.814,0.822,0.822,0.823,0.824,0.824,0.825,0.825,0.824,0.823,0.822,0.821,0.82,0.82,0.82,0.82,0.822,0.823,0.824,0,0,0,0,0,0,0,0,0,0,0,0,0,0,0,0,0,0,0,0,0,0.536,0.536,0.535,0,0,0,0,0,0,0,0,0,0,0,0,0,0,0,0,0,0,0,0,0,0,0,0,0,0,0.622,0.621,0.621,0.621,0.621,0.621,0.62,0,0,0,0,0,0,0,0,0,0,0,0,0,0,0,0,0.531,0.531,0.53,0.529,0.526,0,0,0,0,0,0,0,0,0,0,0,0,0,0,0,0,0,0,0,0,0,0,0,0,0,0,0,0,0,0,0,0,0,0,0,0,0,0,0,0,0,0,0,0,0,0,0,0,0,0,0,0,0.506,0.507,0.508,0.51,0.511,0.512,0.512,0.512,0.512,0,0,0,0,0,0,0,0,0,0,0,0,0,0,0,0,0,0,0,0,0,0,0,0,0,0,0,0,0,0,0,0,0,0.508,0,0,0.505,0.504,0.501,0.498,0.494,0,0.488,0.484,0.479,0.474,0.473,0.472,0.47,0.469,0.469,0.468,0.467,0.467,0,0,0,0,0,0,0.504,0.505,0.505,0.505,0.505,0.505,0.505,0.505,0.505,0,0,0,0,0,0,0,0,0,0,0,0,0,0,0,0,0,0,0,0,0,0,0,0,0,0,0,0,0,0,0,0,0,0,0,0,0,0,0,0,0,0,0,0,0,0,0,0,0,0,0,0,0,0,0,0,0,0,0,0,0,0,0,0,0,0,0,0,0,0.832,0.831,0.83,0.83,0.83,0.83,0.829
0.55,0.55,0.551,0.55,0.55,0.551,0.551,0.551,0.551,0.551,0.551,0.551,0.551,0.551,0.551,0.552,0.552,0.553,0.552,0.552,0.551,0.551,0.551,0.55,0.55,0.55,0.55,0.55,0.55,0.55,0.55,0.55,0.55,0.55,0.55,0.55,0.55,0.55,0.551,0.552,0.552,0.553,0.554,0.554,0.554,0.554,0.554,0.553,0.553,0.553,0.553,0.553,0.553,0.553,0.553,0.553,0.552,0.552,0.552,0.551,0.552,0.552,0.552,0.553,0.553,0.553,0.552,0.552,0.551,0.551,0.55,0.55,0.549,0.549,0.549,0.55,0.55,0.551,0.551,0.552,0.553,0.553,0.554,0.554,0.554,0.554,0.555,0.555,0.555,0.555,0.555,0.555,0.555,0.555,0.555,0.554,0.554,0.553,0.553,0.552,0.552,0.552,0.552,0.552,0.553,0.554,0.555,0.557,0.558,0.559,0.561,0.563,0.565,0.568,0.569,0.572,0.574,0.576,0.578,0,0,0,0,0,0.622,0,0,0,0,0,0,0,0,0,0,0,0,0,0,0,0,0,0,0,0.817,0.817,0.817,0.818,0.819,0.819,0.82,0.82,0.82,0.819,0.818,0.818,0.817,0.815,0.814,0.813,0.814,0.814,0.814,0.814,0.815,0.815,0.815,0.815,0.815,0.813,0.813,0.814,0.815,0.815,0.815,0.815,0.816,0.817,0.819,0.819,0.819,0.819,0.819,0.819,0.818,0.818,0.817,0.816,0.816,0.815,0.815,0.815,0.816,0.816,0.816,0.815,0.815,0.815,0.816,0.816,0.817,0.817,0.818,0.82,0.822,0.824,0.825,0.826,0.826,0.825,0.825,0.824,0.822,0.82,0.818,0.817,0.816,0.816,0.816,0.816,0.817,0.816,0.817,0.817,0.817,0.817,0.816,0.816,0.817,0.816,0.816,0.816,0.816,0.816,0.815,0.815,0.814,0.813,0.811,0.808,0.805,0.803,0.8,0,0,0,0,0,0,0,0,0,0,0,0,0,0.75,0.747,0.747,0.747,0.752,0.759,0.77,0,0.794,0.803,0.812,0.817,0.817,0.818,0.819,0.819,0.82,0.82,0.82,0.819,0.818,0.817,0.817,0.817,0.817,0.818,0.818,0.819,0.821,0,0,0,0,0,0,0,0,0,0,0,0,0,0,0,0,0,0,0,0,0.536,0.536,0.535,0.535,0.535,0,0,0,0,0,0,0,0,0,0,0,0,0,0,0,0,0,0,0,0,0,0,0,0,0.623,0.622,0.621,0.621,0.621,0.621,0.62,0,0,0,0,0,0,0,0,0,0,0,0,0,0,0,0,0.534,0.532,0.531,0.531,0.53,0.527,0.522,0,0,0,0,0,0,0,0,0,0,0,0,0,0,0,0,0,0,0,0,0,0,0,0,0,0,0,0,0,0,0,0,0,0,0,0,0,0,0,0,0,0,0,0,0,0,0,0,0,0,0,0,0.507,0.509,0.509,0.511,0.511,0.512,0.512,0.512,0,0,0,0,0,0,0,0,0,0,0,0,0.817,0.816,0.816,0.816,0,0,0,0,0,0,0,0,0,0,0,0,0,0,0,0,0,0.51,0.509,0.507,0.507,0.506,0.504,0.501,0.497,0,0,0,0.48,0.474,0.472,0.471,0.47,0.469,0.469,0.468,0.467,0.467,0,0,0,0,0,0,0,0.505,0.505,0.504,0.504,0.504,0.504,0.504,0.504,0.503,0.503,0,0,0,0,0,0,0,0,0,0,0,0,0,0,0,0,0,0,0,0,0,0,0,0,0,0,0,0,0,0,0,0,0,0,0,0,0,0,0,0,0,0,0,0,0,0,0,0,0,0,0,0,0,0,0,0,0,0,0,0,0,0,0,0,0,0,0.829,0.828,0.827,0.826,0.827,0.826,0.826,0.826
0.55,0.551,0.551,0.551,0.551,0.552,0.552,0.552,0.552,0.552,0.551,0.551,0.552,0.552,0.552,0.552,0.552,0.552,0.552,0.552,0.551,0.551,0.551,0.55,0.55,0.55,0.55,0.55,0.551,0.551,0.551,0.551,0.55,0.55,0.55,0.55,0.55,0.55,0.551,0.552,0.553,0.553,0.554,0.554,0.554,0.554,0.554,0.554,0.554,0.554,0.554,0.553,0.553,0.553,0.553,0.553,0.553,0.552,0.552,0.552,0.552,0.552,0.552,0.553,0.553,0.553,0.553,0.552,0.552,0.551,0.551,0.55,0.55,0.55,0.55,0.55,0.551,0.551,0.552,0.553,0.553,0.553,0.554,0.554,0.554,0.554,0.555,0.555,0.555,0.555,0.555,0.555,0.555,0.555,0.555,0.554,0.554,0.553,0.553,0.553,0.553,0.552,0.552,0.552,0.553,0.555,0.555,0.557,0.558,0.559,0.561,0.563,0.565,0.568,0.569,0.572,0.574,0.576,0.577,0,0,0,0,0,0,0,0,0,0,0,0,0,0,0,0,0,0,0,0,0,0,0,0,0.815,0.815,0.816,0.816,0.817,0.817,0.818,0.818,0.818,0.818,0.818,0.816,0.816,0.814,0.812,0.811,0.81,0.81,0.811,0.81,0.811,0.811,0.811,0.811,0.811,0.811,0.81,0.809,0.81,0.811,0.811,0.811,0.811,0.811,0.813,0.814,0.815,0.815,0.815,0.815,0.815,0.815,0.813,0.813,0.813,0.812,0.811,0.81,0.811,0.811,0.811,0.812,0.812,0.811,0.811,0.812,0.812,0.812,0.813,0.813,0.815,0.816,0.818,0.819,0.82,0.82,0.82,0.82,0.819,0.818,0.816,0.815,0.814,0.813,0.813,0.813,0.813,0.813,0.814,0.814,0.814,0.814,0.814,0.814,0.813,0.813,0.813,0.813,0.813,0.812,0.812,0.812,0.812,0.811,0.809,0.806,0.804,0.801,0.799,0.796,0,0,0,0,0,0,0,0,0,0,0,0,0,0.756,0.754,0.753,0.754,0,0,0,0,0.796,0.803,0.809,0.813,0.813,0.815,0.815,0.815,0.815,0.815,0.815,0.815,0.814,0.814,0.814,0.815,0.815,0.816,0.816,0.817,0.818,0,0,0,0,0,0,0,0,0,0,0,0,0,0,0,0,0,0,0,0,0.535,0.535,0.535,0.535,0.535,0,0,0,0,0,0,0,0,0,0,0,0,0,0,0,0,0,0,0,0,0,0,0,0,0.623,0.621,0.621,0.62,0.62,0.621,0.62,0,0,0,0,0,0,0,0,0,0,0,0,0,0,0,0,0.535,0.534,0.534,0.533,0.532,0.53,0.525,0.516,0,0,0,0,0,0,0,0,0,0,0,0,0,0,0,0,0,0,0,0,0,0,0,0,0,0,0,0,0,0,0,0,0,0,0,0,0,0,0,0,0,0,0,0,0,0,0,0,0,0,0,0,0.508,0.509,0.51,0.51,0.512,0.512,0.512,0.512,0,0,0,0,0,0,0,0,0,0.818,0.816,0.816,0.816,0.815,0.815,0.814,0,0,0,0,0,0,0,0,0,0,0,0,0,0,0,0,0.511,0.51,0.509,0.508,0.507,0.506,0.504,0.5,0,0,0,0.48,0.474,0.472,0.471,0.47,0.469,0.469,0.468,0.468,0.467,0.467,0,0,0,0,0,0,0,0.505,0.504,0.504,0.504,0.503,0.503,0.503,0.502,0.502,0.502,0,0,0,0,0,0,0,0,0,0,0,0,0,0,0,0,0,0,0,0,0,0,0,0,0,0,0,0,0,0,0,0,0,0,0,0,0,0,0,0,0,0,0,0,0,0,0,0,0,0,0,0,0,0,0,0,0,0,0,0,0,0,0,0,0,0,0.823,0.822,0.822,0.823,0.823,0.823,0.822
0.551,0.551,0.551,0.551,0.552,0.552,0.552,0.553,0.553,0.553,0.553,0.552,0.553,0.553,0.553,0.553,0.553,0.553,0.552,0.551,0.551,0.551,0.551,0.551,0.55,0.55,0.55,0.551,0.551,0.551,0.551,0.551,0.551,0.551,0.551,0.551,0.551,0.551,0.552,0.552,0.553,0.553,0.554,0.555,0.555,0.554,0.554,0.554,0.554,0.554,0.554,0.554,0.554,0.554,0.554,0.554,0.554,0.553,0.553,0.552,0.553,0.552,0.553,0.553,0.553,0.553,0.553,0.553,0.553,0.552,0.552,0.551,0.551,0.551,0.551,0.551,0.552,0.552,0.553,0.553,0.553,0.554,0.554,0.554,0.554,0.554,0.555,0.555,0.555,0.555,0.555,0.555,0.555,0.555,0.555,0.555,0.554,0.553,0.553,0.553,0.552,0.552,0.552,0.553,0.553,0.555,0.556,0.557,0.558,0.559,0.561,0.563,0.565,0.568,0.569,0.572,0.575,0.576,0.579,0,0,0,0,0,0,0,0,0,0,0,0,0,0,0,0,0,0,0,0,0,0,0.816,0.814,0.813,0.813,0.813,0.814,0.814,0.814,0.815,0.816,0.815,0.815,0.814,0.813,0.812,0.81,0.809,0.807,0.807,0.806,0.806,0.806,0.806,0.806,0.806,0.807,0.806,0.806,0.806,0.805,0.805,0.806,0.807,0.806,0.807,0.807,0.808,0.809,0.81,0.81,0.81,0.811,0.811,0.811,0.81,0.809,0.808,0.808,0.807,0.807,0.806,0.806,0.807,0.807,0.807,0.807,0.808,0.808,0.809,0.809,0.809,0.809,0.81,0.811,0.812,0.813,0.814,0.815,0.815,0.815,0.815,0.814,0.813,0.812,0.811,0.81,0.809,0.809,0.809,0.81,0.811,0.811,0.811,0.811,0.811,0.811,0.811,0.81,0.81,0.81,0.809,0.809,0.809,0.809,0.808,0.806,0.805,0.802,0.801,0.797,0.794,0.792,0.789,0.788,0,0,0,0,0,0,0,0,0.77,0,0.764,0.763,0.761,0.761,0,0,0,0,0,0.798,0.803,0.807,0.81,0.81,0.811,0.811,0.811,0.811,0.811,0.811,0.811,0.811,0.81,0.811,0.812,0.813,0.813,0.814,0.815,0.817,0,0,0,0,0,0,0,0,0,0,0,0,0,0,0,0,0,0,0,0.533,0.534,0.534,0.535,0,0,0,0,0,0,0,0,0,0,0,0,0,0,0,0,0,0,0,0,0,0,0,0,0,0,0.621,0.621,0.62,0.62,0.62,0.62,0.619,0,0,0,0,0,0,0,0,0,0,0,0,0,0,0,0.537,0.535,0.534,0.534,0.534,0.533,0.53,0.525,0.52,0,0,0,0,0,0,0,0,0,0,0,0,0,0,0,0,0,0,0,0,0.488,0.488,0,0,0,0,0,0,0,0,0,0,0,0,0,0,0,0,0,0,0,0,0,0,0,0,0,0,0,0,0,0,0,0.508,0.509,0.509,0.51,0.512,0.512,0.512,0,0,0,0,0,0,0,0,0,0,0.813,0.813,0.813,0.812,0,0,0,0,0,0,0,0,0,0,0,0,0,0,0,0,0,0,0.512,0.512,0.51,0.51,0.509,0.508,0.506,0.503,0,0,0,0,0.474,0.472,0.471,0.47,0.469,0.469,0.468,0.468,0.467,0.467,0,0,0,0,0,0,0,0,0,0,0.503,0.502,0.502,0.502,0.502,0.502,0.502,0.502,0.502,0,0,0,0,0,0,0,0,0,0,0,0,0,0,0,0,0,0,0,0,0,0,0,0,0,0,0,0,0,0,0,0,0,0,0,0,0,0,0,0,0,0,0,0,0,0,0,0,0,0,0,0,0,0,0,0,0,0,0,0,0,0,0,0,0.819,0.819,0.819,0.819,0.819,0.819,0.818
0.551,0.551,0.552,0.552,0.552,0.552,0.553,0.554,0.554,0.554,0.554,0.553,0.554,0.554,0.553,0.553,0.553,0.553,0.552,0.552,0.552,0.551,0.551,0.551,0.551,0.55,0.551,0.551,0.552,0.552,0.552,0.552,0.551,0.551,0.551,0.551,0.551,0.551,0.552,0.552,0.552,0.553,0.554,0.554,0.555,0.555,0.554,0.554,0.555,0.555,0.555,0.555,0.555,0.555,0.554,0.554,0.554,0.554,0.554,0.553,0.553,0.553,0.553,0.553,0.554,0.554,0.553,0.553,0.553,0.553,0.552,0.552,0.552,0.552,0.552,0.552,0.553,0.553,0.553,0.553,0.554,0.554,0.554,0.554,0.554,0.554,0.554,0.555,0.555,0.555,0.555,0.555,0.555,0.555,0.555,0.555,0.554,0.553,0.553,0.553,0.552,0.552,0.552,0.553,0.553,0.555,0.556,0.557,0.558,0.559,0.561,0.563,0.566,0.568,0.57,0.572,0.575,0.578,0.58,0.583,0.587,0.594,0,0,0,0,0,0,0,0,0,0,0,0,0,0,0,0,0,0,0,0.814,0.811,0.811,0.811,0.811,0.812,0.812,0.811,0.811,0.812,0.812,0.811,0.81,0.809,0.808,0.806,0.805,0.803,0.802,0.802,0.802,0.802,0.801,0.801,0.801,0.801,0.801,0.801,0.801,0.801,0.801,0.801,0.802,0.802,0.803,0.803,0.803,0.804,0.806,0.806,0.806,0.807,0.807,0.806,0.805,0.804,0.804,0.804,0.802,0.802,0.802,0.802,0.802,0.803,0.804,0.803,0.804,0.805,0.805,0.806,0.806,0.806,0.806,0.807,0.807,0.808,0.808,0.809,0.809,0.809,0.809,0.807,0.807,0.807,0.806,0.806,0.805,0.805,0.805,0.806,0.806,0.806,0.807,0.806,0.806,0.806,0.806,0.806,0.807,0.806,0.806,0.806,0.805,0.805,0.803,0.802,0.8,0,0,0,0.789,0.788,0.786,0.785,0.784,0.783,0,0,0,0,0.781,0.777,0.774,0.771,0.77,0.769,0.768,0.767,0,0,0,0,0,0.799,0.802,0.804,0.807,0.807,0.807,0.808,0.807,0.807,0.808,0.808,0.807,0.807,0.807,0.808,0.809,0.81,0.81,0.812,0,0,0,0,0,0,0,0,0,0,0,0,0,0,0,0,0,0,0,0,0.531,0.532,0.533,0.533,0,0,0,0,0,0,0,0,0,0,0,0,0,0,0,0,0,0,0,0,0,0,0,0,0,0,0,0,0.62,0.619,0.619,0.619,0.619,0.618,0,0,0,0,0,0,0,0,0,0,0,0,0,0,0,0,0.543,0.539,0.539,0,0,0,0.532,0.531,0,0,0,0.61,0.61,0.61,0.609,0,0,0,0,0,0,0,0,0,0,0,0.488,0.488,0.488,0.488,0,0,0,0,0,0,0,0,0,0,0,0,0,0,0,0,0,0,0,0,0,0,0,0,0,0,0,0,0,0,0,0,0.506,0.507,0.509,0.511,0.511,0.511,0.511,0,0,0,0,0,0,0,0.812,0.811,0.811,0.81,0.81,0.809,0.809,0.808,0,0,0,0,0,0,0,0,0,0,0,0,0,0,0,0,0,0.512,0.512,0.51,0.51,0.51,0.509,0.506,0,0,0,0,0,0.471,0.47,0.47,0.469,0.468,0.468,0.468,0.467,0.467,0.467,0,0,0,0,0,0,0,0,0,0,0.502,0.502,0.502,0.502,0.502,0.502,0.502,0.502,0.502,0,0,0,0,0,0,0,0,0,0,0,0,0,0,0,0,0,0,0,0,0,0,0,0,0,0,0,0,0,0,0,0,0,0,0,0,0,0,0,0,0,0,0,0,0,0,0,0,0,0,0,0,0,0,0,0,0,0,0,0,0.814,0,0,0.815,0.815,0.815,0.815,0.815,0.814,0.814
0.551,0.552,0.552,0.552,0.553,0.553,0.554,0.555,0.555,0.555,0.555,0.555,0.554,0.554,0.554,0.554,0.553,0.553,0.552,0.552,0.551,0.552,0.552,0.551,0.551,0.551,0.551,0.551,0.552,0.552,0.552,0.552,0.552,0.552,0.552,0.552,0.552,0.552,0.552,0.553,0.553,0.553,0.554,0.554,0.555,0.555,0.555,0.555,0.555,0.555,0.555,0.555,0.555,0.555,0.555,0.555,0.555,0.555,0.554,0.554,0.554,0.553,0.553,0.554,0.554,0.554,0.553,0.553,0.553,0.553,0.553,0.553,0.553,0.553,0.553,0.553,0.553,0.553,0.554,0.554,0.554,0.554,0.554,0.554,0.554,0.554,0.554,0.554,0.555,0.555,0.555,0.555,0.555,0.555,0.555,0.555,0.554,0.553,0.553,0.553,0.552,0.552,0.552,0.553,0.554,0.555,0.556,0.557,0.558,0.559,0.561,0.564,0.566,0.568,0.57,0.573,0.576,0.578,0.581,0.585,0.589,0,0,0,0,0,0,0,0,0,0,0,0,0,0,0,0,0,0,0,0,0.811,0.81,0.809,0.809,0.809,0.81,0.809,0.809,0.808,0.808,0.808,0.808,0.806,0.805,0.803,0.802,0.801,0.8,0.799,0.799,0.799,0.798,0.797,0.796,0.796,0.796,0.796,0.797,0.797,0.797,0.798,0.799,0.799,0.8,0.8,0.8,0.8,0.801,0.801,0.801,0.802,0.802,0.802,0.802,0.801,0.8,0.8,0.8,0.8,0.799,0.799,0.799,0.799,0.8,0.8,0.8,0.801,0.801,0.801,0.801,0.802,0.802,0.803,0.803,0.803,0.803,0.803,0.803,0.803,0.803,0.802,0.801,0.802,0.801,0.801,0.801,0.801,0.801,0.801,0.801,0.801,0.801,0.801,0.801,0.801,0.802,0.802,0.802,0.803,0.803,0.803,0.802,0.801,0.801,0.801,0.798,0,0,0,0.788,0.786,0.785,0.783,0.783,0.782,0.781,0,0,0,0,0,0.778,0.776,0.775,0.774,0.774,0.773,0.773,0,0,0,0.788,0.794,0.798,0.8,0.802,0.803,0.803,0.803,0.803,0.803,0.803,0.803,0.803,0.803,0.804,0.805,0.806,0.807,0.808,0.809,0.81,0,0,0,0,0,0,0,0,0,0,0,0,0,0,0,0,0,0.527,0.528,0.529,0.53,0.531,0.532,0.533,0,0,0,0,0,0,0,0,0,0,0,0,0,0,0,0,0,0,0,0,0,0,0,0,0,0,0,0,0.62,0.618,0.618,0.618,0.618,0,0,0,0,0,0,0,0,0,0,0,0,0,0,0,0,0.551,0.553,0,0,0,0,0,0,0.575,0,0.605,0.607,0.609,0.61,0.609,0.608,0.608,0.607,0,0,0,0,0,0,0,0,0,0,0.489,0.489,0.489,0.489,0,0,0,0,0,0,0,0,0,0,0,0,0,0,0,0,0,0,0,0,0,0,0,0,0,0,0,0,0,0,0,0.505,0.505,0.507,0.509,0.509,0.509,0.509,0,0,0,0,0,0,0.809,0.809,0.808,0.807,0.807,0.806,0.805,0.805,0.804,0.804,0,0,0,0,0,0,0,0,0,0,0,0,0,0,0,0,0.512,0.512,0.511,0.511,0.51,0.51,0.508,0.505,0,0,0,0,0,0.47,0.469,0.469,0.468,0.468,0.467,0.467,0.467,0.466,0,0,0,0,0,0,0,0,0,0,0.502,0.502,0.501,0.501,0.502,0.501,0.502,0.501,0.502,0,0,0,0,0,0,0,0,0,0,0,0,0,0,0,0,0.521,0.52,0.52,0,0,0,0,0,0,0,0,0,0,0,0,0,0,0,0,0,0,0,0,0,0,0,0,0,0,0,0,0,0,0,0,0,0,0,0,0,0,0,0,0,0.811,0.812,0.812,0.812,0.811,0.811,0.811,0.811,0.81,0.809
0.552,0.552,0.553,0.553,0.553,0.554,0.555,0.555,0.555,0.556,0.556,0.555,0.555,0.555,0.555,0.554,0.554,0.553,0.552,0.552,0.552,0.552,0.552,0.551,0.551,0.551,0.551,0.551,0.552,0.552,0.553,0.553,0.552,0.553,0.553,0.552,0.552,0.552,0.553,0.552,0.553,0.553,0.554,0.554,0.554,0.555,0.555,0.555,0.555,0.555,0.555,0.555,0.555,0.555,0.555,0.555,0.555,0.555,0.555,0.554,0.554,0.554,0.554,0.554,0.554,0.553,0.553,0.553,0.553,0.553,0.553,0.553,0.553,0.553,0.553,0.553,0.554,0.554,0.554,0.554,0.554,0.554,0.554,0.554,0.554,0.554,0.554,0.554,0.554,0.554,0.555,0.555,0.555,0.555,0.555,0.555,0.554,0.553,0.553,0.553,0.553,0.553,0.553,0.553,0.554,0.555,0.556,0.557,0.558,0.559,0.561,0.564,0.567,0.568,0.57,0.573,0.577,0.58,0.583,0.587,0.591,0.596,0.6,0.603,0,0,0,0,0,0,0,0,0,0,0,0,0,0,0,0,0,0,0,0.805,0.806,0.806,0.806,0.805,0.804,0.803,0.804,0.803,0.802,0.801,0.801,0.8,0.799,0.798,0.796,0.796,0.795,0.795,0.794,0.793,0.792,0.792,0.792,0.793,0.793,0.793,0.794,0.794,0.795,0.795,0.796,0.797,0.796,0.797,0.797,0.798,0.798,0.799,0.799,0.799,0.798,0.797,0.796,0.797,0.796,0.795,0.795,0.794,0.794,0.794,0.795,0.795,0.795,0.796,0.797,0.798,0.799,0.799,0.8,0.8,0.8,0.8,0.799,0.799,0.799,0.798,0.798,0.797,0,0,0.797,0.797,0.796,0.796,0.796,0.797,0.797,0.798,0.798,0.798,0.798,0.798,0.799,0.799,0.8,0.8,0.799,0.799,0.799,0.798,0.797,0.796,0.794,0.792,0,0.787,0.786,0.783,0.782,0.781,0.781,0.78,0.78,0.779,0.779,0,0,0.779,0.778,0.777,0.777,0.777,0.777,0.777,0.779,0.78,0.783,0.787,0.791,0.795,0.797,0.798,0.799,0.8,0.8,0.8,0.8,0.8,0.8,0.801,0.801,0.801,0.801,0.802,0.803,0.804,0.805,0.807,0,0,0,0,0,0,0,0,0,0,0,0,0,0,0,0,0,0.524,0.526,0.527,0.528,0.528,0.529,0.53,0,0,0,0,0,0,0,0,0,0,0,0,0,0,0,0,0,0,0,0,0,0,0,0,0,0,0,0,0,0.619,0.617,0.617,0.617,0.617,0,0,0,0,0,0,0,0,0,0,0,0,0,0,0,0,0,0,0,0,0,0,0.574,0.579,0,0,0.604,0.606,0.608,0.609,0.609,0.607,0.607,0.606,0,0,0,0,0,0,0,0,0,0,0.49,0.489,0.489,0.489,0.488,0.488,0,0,0,0,0,0,0,0,0,0,0,0,0,0,0,0,0,0,0,0,0,0,0,0,0,0,0,0.498,0,0,0.502,0.505,0.507,0.505,0,0,0,0,0,0,0,0.807,0.807,0.806,0.805,0.804,0.803,0.803,0.802,0.801,0.801,0.801,0,0,0,0,0,0,0,0,0,0,0,0,0,0,0,0,0,0,0.511,0.511,0.51,0,0.509,0,0,0,0,0,0,0,0.47,0.468,0.468,0.467,0.467,0.466,0.466,0.466,0.466,0,0,0,0,0,0,0,0,0,0,0.501,0.501,0.501,0.501,0.501,0.501,0.501,0.501,0.502,0,0,0,0,0,0,0,0,0,0,0,0,0,0,0.521,0.521,0.52,0.52,0.52,0,0,0,0,0,0,0,0,0,0,0,0,0,0,0,0,0,0,0,0,0,0,0,0,0,0,0,0,0,0,0,0,0,0,0,0,0,0,0,0,0.809,0.809,0.809,0.808,0.808,0.806,0.806,0.806,0.805,0.805
0.552,0.553,0.553,0.553,0.554,0.555,0.555,0.556,0.556,0.556,0.556,0.556,0.555,0.555,0.555,0.554,0.554,0.553,0.552,0.552,0.552,0.552,0.552,0.551,0.551,0.551,0.551,0.552,0.552,0.552,0.552,0.553,0.553,0.553,0.553,0.552,0.552,0.552,0.553,0.553,0.553,0.553,0.554,0.554,0.554,0.555,0.555,0.555,0.555,0.555,0.555,0.555,0.555,0.555,0.555,0.555,0.555,0.555,0.555,0.555,0.554,0.554,0.554,0.554,0.554,0.553,0.553,0.553,0.554,0.554,0.554,0.554,0.554,0.554,0.554,0.554,0.553,0.554,0.554,0.554,0.554,0.554,0.554,0.554,0.553,0.554,0.554,0.554,0.554,0.555,0.555,0.555,0.555,0.555,0.555,0.555,0.554,0.553,0.553,0.553,0.553,0.553,0.553,0.553,0.554,0.555,0.556,0.557,0.557,0.558,0.561,0.563,0.566,0.569,0.57,0.574,0.578,0.581,0,0.589,0.592,0.596,0.6,0.603,0.606,0,0,0,0,0,0,0,0,0,0,0,0,0,0,0,0,0,0,0,0.801,0.801,0.801,0.799,0.799,0.799,0.798,0.798,0.797,0.797,0.796,0.795,0.794,0.793,0.792,0.792,0.791,0.791,0.79,0.789,0.789,0.788,0.787,0.788,0.789,0.789,0.79,0.79,0.79,0.791,0.792,0.794,0.793,0.793,0.794,0.794,0.795,0.795,0.795,0.795,0.794,0.793,0.793,0.792,0.792,0.791,0.79,0.79,0.789,0.788,0.79,0.79,0.79,0.791,0.792,0.793,0.793,0.795,0.795,0.796,0.795,0.795,0.795,0.794,0.794,0.793,0.792,0.792,0.792,0.793,0,0.793,0.793,0.792,0.793,0.793,0.794,0.794,0.794,0.795,0.794,0.794,0.795,0.796,0.796,0.796,0.796,0.795,0.794,0.794,0.793,0.792,0.79,0.788,0.786,0.784,0.783,0.781,0.78,0.78,0.78,0.779,0.778,0.778,0.778,0.778,0.777,0.777,0.777,0.777,0.777,0.777,0.779,0.78,0.781,0.782,0.785,0.788,0.791,0,0,0,0.795,0.796,0.796,0.796,0.796,0.795,0.796,0.797,0.798,0.798,0.799,0.8,0.801,0.801,0,0,0,0,0,0,0,0,0,0,0,0,0,0,0,0,0,0,0,0.524,0.526,0.527,0.528,0.528,0.529,0,0,0,0,0,0,0,0,0,0,0,0,0,0,0,0,0,0,0,0,0,0,0,0,0,0,0,0,0,0,0.618,0.616,0.616,0.616,0.615,0,0,0,0,0,0,0,0,0,0,0,0,0,0,0,0,0,0,0,0,0,0.589,0.594,0.597,0.599,0.601,0.604,0.605,0.607,0.608,0.608,0.607,0.606,0.605,0.604,0,0,0,0,0,0,0,0,0,0.49,0.489,0.489,0.489,0.488,0.487,0,0,0,0,0,0,0,0,0,0,0,0,0,0,0,0,0,0,0,0,0,0,0,0,0,0,0,0,0,0,0,0.501,0.5,0,0.5,0.501,0,0,0,0,0,0.804,0.803,0.802,0.801,0.801,0.799,0.8,0.799,0.799,0.798,0.797,0.797,0.798,0,0,0,0,0,0,0,0,0,0,0,0,0,0,0,0,0.512,0.511,0.51,0,0,0.508,0,0,0,0,0,0,0,0.468,0.467,0.467,0.466,0.466,0.466,0.465,0.465,0,0,0,0,0,0,0,0,0,0,0,0.5,0.5,0.501,0.5,0.501,0.501,0.501,0.501,0.502,0,0,0,0,0,0,0,0,0,0,0,0,0.522,0.521,0.521,0.52,0.52,0.519,0.519,0,0,0,0,0,0,0,0,0,0,0,0,0,0,0,0,0,0,0,0,0,0,0,0,0,0,0,0,0,0,0,0,0,0,0,0,0,0,0,0.809,0.808,0.807,0.806,0.805,0.804,0.802,0.802,0.801,0.801
0.553,0.553,0.553,0.554,0.554,0.555,0.555,0.556,0.556,0.557,0.557,0.556,0.555,0.555,0.555,0.555,0.554,0.553,0.553,0.552,0.552,0.552,0.552,0.552,0.551,0.551,0.552,0.552,0.553,0.553,0.553,0.553,0.553,0.553,0.553,0.553,0.553,0.553,0.553,0.553,0.553,0.553,0.554,0.554,0.554,0.554,0.555,0.555,0.555,0.555,0.555,0.555,0.555,0.555,0.555,0.555,0.555,0.555,0.555,0.555,0.555,0.554,0.554,0.554,0.553,0.553,0.553,0.553,0.554,0.554,0.554,0.554,0.554,0.554,0.554,0.554,0.554,0.554,0.554,0.554,0.554,0.554,0.554,0.554,0.553,0.554,0.554,0.553,0.554,0.555,0.555,0.555,0.555,0.555,0.555,0.555,0.554,0.553,0.553,0.553,0.553,0.553,0.553,0.554,0.554,0.555,0.556,0.557,0.557,0.558,0.56,0.563,0.566,0.569,0.57,0.575,0.579,0,0,0.59,0,0.597,0.599,0.602,0.605,0,0,0,0,0,0,0,0,0,0,0,0,0,0,0,0,0,0,0,0.792,0.792,0.792,0.792,0.792,0.792,0.792,0.791,0.791,0.791,0.791,0.79,0.789,0.789,0.788,0.788,0.787,0.787,0.787,0.787,0.787,0.787,0.786,0.787,0.787,0.787,0.787,0.787,0.787,0.788,0.789,0.79,0.79,0.79,0.79,0.791,0.791,0.791,0.791,0.792,0.791,0.79,0.79,0.788,0.787,0.787,0.787,0.786,0.785,0.785,0.786,0.786,0.787,0.787,0.788,0.788,0.789,0.79,0.791,0.791,0.791,0.791,0.79,0.79,0.79,0.789,0.788,0.788,0.787,0.788,0.788,0.788,0.788,0.788,0.789,0.789,0.789,0.79,0.79,0.79,0.791,0.791,0.791,0.792,0.792,0.792,0.792,0.792,0.791,0.79,0.789,0.788,0.787,0.786,0.783,0.782,0.781,0.779,0.779,0.779,0.778,0.778,0.777,0.777,0.777,0.777,0.777,0.777,0.777,0.777,0.777,0.777,0.779,0.78,0.781,0.783,0.785,0.787,0,0,0.79,0.79,0.79,0.791,0.791,0.791,0.791,0.791,0.792,0.792,0.794,0.795,0.796,0.797,0.798,0.799,0,0,0,0,0,0,0,0,0,0,0,0,0,0,0,0,0,0,0.523,0.524,0.525,0.526,0.527,0.527,0.528,0,0,0,0,0,0,0,0,0,0,0,0,0,0,0,0,0,0,0,0,0,0,0,0,0,0,0,0,0,0,0,0.615,0.615,0.613,0.611,0.605,0,0,0,0,0,0,0,0,0,0,0,0,0,0,0,0,0,0.589,0.588,0.588,0.591,0.595,0.597,0.599,0.601,0.603,0.605,0.606,0.607,0.607,0.607,0.605,0.604,0.603,0,0,0,0,0,0,0,0,0,0.489,0.489,0.489,0.488,0.488,0.487,0,0,0,0,0,0,0,0,0,0,0,0,0,0,0,0,0,0,0,0,0,0,0,0,0,0,0,0,0,0,0,0,0.494,0.494,0.494,0.497,0,0,0,0,0,0.802,0.801,0.8,0.799,0.799,0.797,0.797,0.797,0.795,0.795,0.795,0.795,0.795,0,0,0,0,0,0,0,0,0,0,0,0,0,0,0,0,0.512,0.511,0.51,0.51,0,0,0,0,0,0.486,0,0,0,0.467,0.467,0.466,0.466,0.466,0.465,0.465,0.465,0.464,0,0,0,0,0,0,0,0,0,0,0.499,0.5,0.5,0.5,0.5,0.5,0.5,0.5,0.501,0.501,0,0,0,0,0,0,0,0,0,0,0,0,0.521,0.52,0.52,0.519,0.518,0.518,0.518,0,0,0,0,0,0,0,0,0,0,0,0,0,0,0,0,0,0,0,0,0,0,0,0,0,0,0,0,0,0,0,0,0,0,0,0,0,0,0,0,0.804,0.803,0.802,0.801,0.8,0.799,0.799,0.798
0.553,0.554,0.554,0.554,0.554,0.555,0.555,0.556,0.557,0.557,0.557,0.557,0.556,0.556,0.555,0.555,0.554,0.554,0.553,0.552,0.552,0.552,0.552,0.552,0.552,0.552,0.552,0.553,0.553,0.553,0.553,0.554,0.553,0.553,0.553,0.553,0.553,0.553,0.553,0.552,0.552,0.553,0.554,0.554,0.554,0.554,0.555,0.555,0.555,0.555,0.555,0.555,0.555,0.555,0.555,0.555,0.555,0.555,0.555,0.555,0.555,0.555,0.554,0.554,0.554,0.553,0.553,0.553,0.554,0.554,0.554,0.554,0.554,0.554,0.554,0.554,0.555,0.555,0.554,0.555,0.555,0.554,0.554,0.554,0.554,0.553,0.553,0.553,0.554,0.554,0.555,0.555,0.555,0.555,0.555,0.555,0.554,0.554,0.553,0.553,0.554,0.554,0.554,0.554,0.555,0.555,0.556,0.557,0.557,0.558,0.561,0.563,0.566,0.569,0.571,0.574,0.579,0,0,0,0.594,0.598,0.6,0.603,0.606,0,0,0,0,0,0,0,0,0,0,0,0,0,0,0,0,0,0,0,0.782,0.782,0.783,0.784,0.785,0.785,0,0.786,0.786,0.786,0.786,0.785,0.785,0.786,0.785,0.784,0.785,0.785,0.784,0.783,0.783,0.783,0.783,0.783,0.784,0.784,0.785,0.785,0.785,0.786,0.786,0.787,0.787,0.787,0.787,0.787,0.787,0.787,0.787,0.787,0.787,0.787,0.786,0.785,0.784,0.784,0.783,0.782,0.782,0.782,0.782,0.782,0.783,0.784,0.785,0.785,0.786,0.786,0.787,0.787,0.787,0.787,0.787,0.787,0.787,0.786,0.785,0.785,0.785,0.785,0.785,0.785,0.785,0.785,0.786,0.786,0.786,0.786,0.787,0.787,0.787,0.787,0.787,0.787,0.788,0.788,0.788,0.787,0.787,0.786,0.786,0.785,0.784,0.783,0.781,0.78,0.779,0.779,0.778,0.777,0.777,0.777,0.777,0.776,0.776,0.776,0.776,0.775,0.776,0.776,0.777,0.777,0.778,0.779,0.781,0.782,0.784,0.785,0.786,0.787,0.787,0.787,0.787,0.787,0.787,0.787,0.787,0.787,0.788,0.789,0.791,0.792,0.791,0.794,0.794,0.796,0,0,0,0,0,0,0,0,0,0,0,0,0,0,0,0,0,0.522,0.522,0.523,0.524,0.526,0.526,0.526,0.528,0,0,0,0,0,0,0,0,0,0,0,0,0,0,0,0,0,0,0,0,0,0,0,0,0,0,0,0,0,0,0,0.61,0.609,0.607,0.605,0.598,0,0.588,0,0,0,0,0,0,0,0,0,0,0,0,0,0.592,0.593,0.592,0.592,0.592,0.592,0.595,0.596,0.599,0.6,0.602,0.604,0.605,0.606,0.606,0.605,0.604,0.603,0.601,0.6,0,0,0,0,0,0,0,0,0.489,0.488,0.488,0.488,0.488,0.487,0.487,0.487,0.486,0,0,0,0,0,0,0,0,0,0,0,0,0,0,0,0,0,0,0,0,0,0,0,0,0,0,0,0,0.489,0.491,0,0,0,0,0,0,0,0,0,0,0.798,0.796,0.796,0.794,0.793,0.793,0.792,0.791,0.791,0.79,0.79,0,0,0,0,0,0,0,0,0,0,0,0,0,0,0,0,0,0.511,0.51,0.509,0.509,0,0,0,0,0,0,0,0,0.467,0.466,0.466,0.466,0.465,0.465,0.465,0.464,0.464,0,0,0,0,0,0,0,0,0,0,0,0.498,0.499,0.499,0.499,0.499,0.499,0.499,0.5,0.5,0,0,0,0,0,0,0,0,0,0,0,0,0,0,0.52,0.519,0.518,0.518,0.518,0,0,0,0,0,0,0,0,0,0,0,0,0,0,0,0,0,0,0,0,0,0,0,0,0,0,0,0,0,0,0,0,0,0,0,0,0,0,0.807,0,0.801,0.8,0.799,0.798,0.796,0.795,0.794,0.793
0.553,0.554,0.554,0.554,0.554,0.555,0.555,0.556,0.556,0.557,0.557,0.557,0.557,0.556,0.556,0.555,0.555,0.554,0.553,0.553,0.553,0.553,0.553,0.553,0.553,0.553,0.553,0.553,0.553,0.553,0.553,0.553,0.553,0.553,0.553,0.553,0.552,0.552,0.552,0.552,0.552,0.553,0.553,0.554,0.554,0.554,0.555,0.555,0.555,0.555,0.555,0.555,0.555,0.555,0.555,0.555,0.555,0.556,0.556,0.555,0.555,0.555,0.555,0.554,0.554,0.553,0.554,0.554,0.554,0.554,0.555,0.555,0.555,0.555,0.555,0.555,0.555,0.555,0.555,0.555,0.555,0.554,0.554,0.554,0.554,0.553,0.553,0.553,0.554,0.554,0.555,0.555,0.555,0.555,0.555,0.555,0.555,0.554,0.554,0.554,0.554,0.554,0.554,0.555,0.555,0.555,0.556,0.557,0.557,0.558,0.56,0.563,0.566,0.568,0.57,0.574,0.579,0,0,0.592,0.594,0.597,0.599,0.601,0.605,0.607,0,0,0,0,0,0,0,0,0,0,0,0,0,0,0,0,0,0,0.771,0.773,0.775,0.777,0.778,0.779,0.779,0.779,0.779,0.78,0.781,0.781,0.781,0.781,0.78,0.78,0.781,0.781,0.781,0.78,0.78,0.779,0.779,0.779,0.78,0.781,0.78,0.781,0.781,0.782,0.783,0.783,0.783,0.783,0.783,0.783,0.783,0.783,0.783,0.783,0.782,0.782,0.781,0.781,0.78,0.78,0.779,0.779,0.779,0.778,0.779,0.779,0.78,0.781,0.781,0.781,0.782,0.783,0.784,0.785,0.785,0.785,0.785,0.785,0.785,0.783,0.783,0.781,0.781,0.78,0.78,0.78,0.78,0.779,0.781,0.781,0.781,0.782,0.782,0.783,0.784,0.784,0.784,0.784,0.784,0.785,0.784,0.784,0.783,0.782,0.782,0.781,0.781,0.78,0.779,0.778,0.778,0.777,0.777,0.777,0.777,0.776,0.776,0.775,0.774,0.774,0.774,0.774,0.774,0.774,0.774,0.775,0.777,0.777,0.779,0.78,0.782,0.783,0.784,0.783,0.783,0.783,0.783,0.783,0.783,0.783,0.783,0.784,0.786,0.787,0.787,0.788,0.789,0.79,0.792,0,0,0,0,0,0,0,0,0,0,0,0,0,0,0,0,0,0,0,0.521,0.522,0.524,0.525,0.525,0.526,0,0,0,0,0,0,0,0,0,0,0,0,0,0,0,0,0,0,0,0,0,0,0,0,0,0,0,0,0,0,0,0,0,0,0,0.599,0.594,0,0,0,0.575,0.573,0.573,0.572,0,0,0,0,0.583,0,0,0,0.594,0.595,0.594,0.594,0.594,0.594,0.595,0.596,0.598,0.6,0.601,0.603,0.604,0.605,0.605,0.604,0.603,0.601,0.6,0.599,0.597,0,0,0,0,0,0,0,0,0,0.488,0.488,0.488,0.487,0.487,0.487,0.486,0.486,0,0,0,0,0,0,0,0,0,0,0,0,0,0,0,0,0,0,0,0,0,0,0,0,0,0,0,0,0,0,0,0,0,0,0,0,0,0,0.796,0.794,0.792,0.791,0.789,0.789,0.788,0.787,0.787,0.787,0.787,0.786,0,0,0,0,0,0,0,0,0,0,0,0,0,0,0,0,0,0,0,0,0,0,0,0.505,0.502,0,0,0,0.469,0.467,0.466,0.465,0.465,0.465,0.465,0.464,0.464,0.463,0,0,0,0,0,0,0,0,0,0,0,0.498,0.498,0.498,0.498,0.498,0.498,0.498,0.499,0.499,0,0,0,0,0,0,0,0,0,0,0,0,0,0,0,0,0.518,0.518,0.517,0,0,0,0,0,0,0,0,0,0,0,0,0,0,0,0,0,0,0,0,0,0,0,0,0,0,0,0,0,0,0,0,0,0,0,0,0,0,0.805,0,0,0,0,0.794,0.792,0.79,0.789,0.788
0.554,0.554,0.554,0.554,0.554,0.555,0.555,0.556,0.557,0.557,0.557,0.557,0.557,0.557,0.556,0.555,0.555,0.555,0.554,0.554,0.554,0.554,0.554,0.553,0.553,0.553,0.554,0.554,0.554,0.553,0.553,0.554,0.553,0.553,0.553,0.552,0.552,0.552,0.552,0.552,0.552,0.553,0.553,0.554,0.554,0.554,0.554,0.555,0.555,0.555,0.555,0.555,0.555,0.555,0.555,0.555,0.555,0.556,0.556,0.556,0.555,0.555,0.555,0.555,0.554,0.554,0.554,0.554,0.554,0.555,0.555,0.555,0.555,0.555,0.555,0.555,0.555,0.555,0.555,0.555,0.555,0.555,0.554,0.554,0.554,0.553,0.553,0.554,0.554,0.554,0.555,0.555,0.555,0.555,0.555,0.555,0.555,0.554,0.554,0.554,0.554,0.554,0.555,0.555,0.555,0.555,0.556,0.557,0.557,0.558,0.561,0.563,0.566,0.568,0.57,0.574,0.579,0.583,0.587,0.591,0.594,0.596,0.599,0.601,0,0,0,0,0,0,0,0,0,0,0,0,0,0,0.725,0.728,0,0,0,0,0.765,0.767,0.768,0.77,0.773,0.773,0.773,0.773,0.774,0.775,0.776,0.776,0.777,0.777,0.777,0.777,0.777,0.777,0.777,0.777,0.777,0.776,0.776,0.776,0.777,0.777,0.777,0.777,0.777,0.778,0.779,0.779,0.779,0.779,0.778,0.778,0.778,0.778,0.779,0.778,0.778,0.777,0,0,0.777,0.777,0.777,0.777,0.777,0.777,0.777,0.777,0.777,0.777,0.777,0.778,0.778,0.779,0.78,0.781,0.781,0.781,0.781,0.781,0.781,0.78,0.779,0.778,0.777,0.777,0.777,0.777,0.777,0.777,0.777,0.777,0.778,0.778,0.779,0.78,0.78,0.78,0.78,0.78,0.78,0.78,0.78,0.78,0.779,0.778,0.778,0.777,0.777,0.777,0.776,0.776,0.776,0.775,0.776,0.775,0.775,0.774,0.774,0.773,0.773,0.772,0.772,0.772,0.772,0.772,0.772,0.773,0.774,0.776,0.777,0.778,0.779,0.78,0.781,0.78,0.78,0.779,0.779,0.779,0.779,0.779,0.78,0.781,0.783,0.784,0.786,0.787,0.787,0.787,0.789,0,0,0,0,0,0,0,0,0,0,0,0,0,0,0,0,0,0,0.52,0.52,0.521,0.523,0.524,0.524,0.525,0.526,0.527,0,0,0,0,0,0,0,0,0,0,0,0,0,0,0,0,0,0,0,0,0,0,0,0,0,0,0,0,0,0,0,0,0.598,0,0,0,0,0.579,0.575,0.574,0.574,0.574,0.574,0,0,0,0,0,0,0,0.595,0.595,0.595,0.595,0.594,0.595,0.595,0.596,0.598,0.599,0.601,0.602,0.603,0.604,0.604,0.603,0.602,0.6,0.6,0.598,0.597,0.595,0,0,0,0,0,0,0,0,0,0.487,0.487,0.487,0.487,0.486,0.486,0.487,0,0,0,0,0,0,0,0,0,0,0,0,0,0,0,0,0,0,0,0,0,0,0,0,0,0,0,0,0,0,0,0,0,0,0,0,0,0,0.791,0.789,0.788,0.787,0.786,0.785,0.785,0.785,0.784,0.784,0.783,0.783,0,0,0,0,0,0,0,0,0,0,0,0,0,0,0,0,0,0,0,0,0,0,0,0,0,0,0,0,0,0.466,0.465,0.465,0.465,0.465,0.464,0.464,0.463,0.463,0,0,0,0,0,0,0,0,0,0,0,0,0.497,0.497,0.498,0.498,0.498,0.498,0.498,0.498,0,0,0,0,0,0,0,0,0,0,0,0,0,0,0.519,0.519,0.518,0.517,0.517,0,0,0,0,0,0,0,0,0,0,0,0,0,0,0,0,0,0,0,0,0,0,0,0,0,0,0,0,0,0,0,0,0,0,0,0,0,0,0,0,0,0,0,0.789,0.788,0.787,0.786,0.786
0.554,0.554,0.554,0.554,0.554,0.554,0.555,0.555,0.557,0.557,0.558,0.558,0.558,0.557,0.557,0.556,0.555,0.555,0.555,0.554,0.554,0.554,0.554,0.553,0.553,0.553,0.554,0.554,0.554,0.553,0.553,0.553,0.553,0.553,0.552,0.552,0.551,0.552,0.552,0.552,0.552,0.553,0.553,0.554,0.554,0.554,0.554,0.555,0.555,0.555,0.554,0.554,0.554,0.555,0.555,0.555,0.555,0.555,0.555,0.555,0.555,0.555,0.555,0.555,0.554,0.554,0.554,0.554,0.554,0.555,0.555,0.555,0.555,0.555,0.555,0.555,0.555,0.555,0.555,0.555,0.555,0.555,0.555,0.554,0.554,0.554,0.554,0.554,0.554,0.554,0.555,0.555,0.555,0.555,0.555,0.555,0.555,0.555,0.555,0.555,0.555,0.555,0.555,0.555,0.555,0.556,0.556,0.557,0.557,0.559,0.561,0.563,0.566,0.568,0.57,0.573,0.578,0.582,0.585,0.59,0.592,0.595,0.598,0,0,0,0,0,0,0,0,0,0,0,0,0,0,0,0.725,0.728,0,0,0.748,0.756,0.76,0.763,0.763,0.767,0.769,0.77,0.77,0.77,0.77,0.772,0.773,0.774,0.774,0.774,0.774,0.774,0.774,0.774,0.774,0.774,0.774,0.773,0.773,0.773,0.775,0.775,0.774,0.774,0.775,0.775,0.776,0.776,0.776,0.776,0.775,0.775,0.775,0.775,0.775,0.774,0.774,0.773,0.774,0,0.773,0.773,0.773,0.773,0.774,0.774,0.774,0.774,0.775,0.775,0.775,0.775,0.775,0.776,0.777,0.777,0.777,0.777,0.777,0.778,0.778,0.777,0.777,0.775,0.774,0.773,0.773,0.773,0.773,0.773,0.773,0.773,0.774,0.775,0.776,0.777,0.777,0.777,0.777,0.777,0.777,0.777,0.777,0.777,0.776,0.775,0.774,0.774,0.774,0.773,0.773,0.773,0.773,0.773,0.774,0.773,0.772,0.772,0.771,0.77,0.77,0.77,0.77,0.77,0.769,0.77,0.77,0.77,0.772,0.773,0.774,0.776,0.777,0.777,0.778,0.777,0.777,0.777,0.777,0.777,0.777,0.777,0.777,0.778,0.78,0.782,0.783,0.784,0.784,0.785,0.787,0,0,0,0,0,0,0,0,0,0,0,0,0,0,0,0,0,0.519,0,0.52,0.52,0.522,0.523,0.523,0,0.525,0,0,0,0,0,0,0,0,0,0,0,0,0,0,0,0,0,0,0,0,0,0,0,0,0,0,0,0,0,0,0,0,0,0.596,0.594,0,0,0.585,0.58,0.577,0.576,0.576,0.576,0.577,0,0,0.583,0,0,0,0.593,0.595,0.595,0.595,0.595,0.595,0.595,0.595,0.596,0.597,0.598,0.6,0.601,0.602,0.603,0.603,0.603,0.602,0.6,0.6,0.599,0.598,0,0,0,0,0,0,0,0,0.487,0.487,0.487,0.487,0.487,0.487,0.487,0.487,0.487,0,0,0,0,0,0,0,0,0,0,0,0,0,0,0,0,0,0,0,0,0,0,0,0,0,0,0,0,0,0,0,0,0,0,0,0,0,0,0,0.786,0.785,0.783,0.782,0.783,0.782,0.781,0.781,0.78,0.78,0.78,0.781,0,0,0,0,0,0,0,0,0,0,0,0,0,0,0,0,0,0,0,0,0,0,0,0,0,0,0,0,0,0.465,0.465,0.464,0.464,0.464,0.463,0.463,0,0,0,0,0,0,0,0,0,0,0,0,0,0,0.497,0.497,0.497,0.497,0.497,0.497,0.497,0,0,0,0,0,0,0,0,0,0,0,0,0,0,0.519,0.518,0.517,0,0,0,0,0,0,0,0,0,0,0,0,0,0,0,0,0,0,0,0,0,0,0,0,0,0,0,0,0,0,0,0,0,0,0,0,0,0,0,0,0,0,0,0,0,0.786,0.785,0.783,0.782,0.782
